-12.154286 5.550718 4.763228 1.000000
-8.464505 11.906393 6.033553 0.000000
-13.649018 -23.937105 9.982528 0.000000
3.836066 15.500391 12.487362 1.000000
-19.225930 11.503160 5.802201 2.000000
-12.619524 -13.657484 10.982774 0.000000
-9.565600 -13.223856 0.525214 2.000000
-18.924732 -10.551672 2.176612 1.000000
20.324206 22.821541 3.751653 1.000000
19.191394 -14.230239 0.670703 2.000000
-4.277253 14.506415 9.536876 1.000000
-13.440488 17.485115 9.671565 1.000000
-13.780669 -1.894695 0.133377 2.000000
6.270431 10.515002 2.715896 1.000000
-7.576435 19.192093 13.706613 2.000000
2.363204 -4.631952 4.018919 0.000000
-20.238871 -0.365828 13.013707 0.000000
6.295456 21.647500 9.640589 2.000000
-12.604102 2.459407 5.572667 0.000000
19.955907 -24.637996 7.689397 1.000000
0.261898 -14.178412 0.167414 0.000000
7.989107 -9.048715 7.493270 2.000000
-8.230430 -5.712666 12.531685 1.000000
-24.300798 -22.143625 4.382564 1.000000
-6.789113 6.923670 5.974000 1.000000
18.476294 14.202071 6.240970 2.000000
15.635224 16.988311 14.361565 0.000000
5.175466 2.147160 7.640590 1.000000
-9.690343 -12.181233 10.754670 0.000000
-9.909173 21.643228 0.727480 2.000000
3.009592 6.627449 12.805699 2.000000
17.049802 -4.697653 9.088849 0.000000
-19.127987 2.782361 1.415993 1.000000
8.805892 24.491949 7.697217 0.000000
16.434915 -1.203210 7.456046 2.000000
-2.736187 19.495268 3.731258 2.000000
-11.075721 21.579467 12.654105 2.000000
6.672109 -14.849377 2.303014 0.000000
9.870353 -9.904050 3.006197 2.000000
14.807523 22.723478 13.393975 1.000000
-18.266213 -15.345476 14.264820 1.000000
13.261952 -8.254177 11.062915 0.000000
-23.272108 -17.340185 1.211921 2.000000
6.854328 9.221432 12.144754 1.000000
5.365577 -5.969976 9.823981 1.000000
-23.920373 -2.154219 3.931389 0.000000
-22.296459 -19.858886 5.601009 1.000000
11.792090 18.514378 13.589451 1.000000
3.432254 -17.924457 10.344264 1.000000
20.179561 14.198276 7.705117 2.000000
7.620217 6.605417 7.706013 0.000000
23.478560 -9.009440 12.799147 0.000000
0.335373 2.569350 11.989697 1.000000
-8.374469 -5.031900 2.863353 2.000000
-1.984214 -4.157113 14.219524 1.000000
-10.430169 20.475369 3.644808 1.000000
-5.422204 0.284156 1.052812 1.000000
-6.364372 3.623587 11.279068 2.000000
6.371505 0.797923 7.229790 1.000000
-14.048002 15.247855 8.416891 0.000000
-24.461661 0.766443 14.554007 0.000000
-9.307283 7.725837 10.981160 0.000000
-0.465352 2.404783 3.344836 0.000000
16.257437 -4.372562 2.779208 0.000000
-16.062745 24.266977 7.271621 1.000000
-9.929827 -14.191477 14.805249 1.000000
14.837965 5.381019 14.603360 2.000000
-17.458492 7.506599 1.205545 2.000000
-15.154456 -24.952922 2.286459 2.000000
-10.542689 20.912673 12.142121 2.000000
13.643622 9.273435 9.737659 0.000000
3.271014 -13.437672 12.840386 2.000000
10.532660 2.929587 6.289764 1.000000
5.887163 3.375729 10.557510 2.000000
19.619898 -2.039990 9.562968 2.000000
-12.742253 -4.700912 12.021735 0.000000
6.486828 -9.107144 5.525654 2.000000
24.612700 6.987787 4.479873 1.000000
-12.306339 16.817874 7.076715 2.000000
-1.153280 22.529763 13.482146 0.000000
2.987762 12.848900 13.090567 1.000000
12.293932 9.983058 12.617014 0.000000
-20.193838 -23.409226 14.821362 1.000000
-17.631738 -12.076542 1.759778 0.000000
-6.404820 -22.243359 11.333770 1.000000
-8.220530 8.856514 1.436707 2.000000
0.136704 -0.294426 11.641857 1.000000
-8.093540 -4.327662 2.334741 2.000000
-9.432269 -9.138256 1.446940 0.000000
-3.744293 17.416824 5.545104 2.000000
-12.061929 -23.685727 8.190783 1.000000
6.820888 14.991925 3.230818 2.000000
-10.101528 -15.887641 2.939354 2.000000
-7.779210 -14.338748 1.088161 1.000000
0.562610 -22.079869 12.119164 1.000000
-11.226989 1.798579 6.137921 1.000000
5.221281 4.573972 7.439279 0.000000
-20.820281 14.838989 13.242428 0.000000
-7.646688 5.756286 14.267489 0.000000
-18.488935 -12.675452 9.925731 2.000000
14.434016 9.469978 12.206059 2.000000
2.856491 17.698969 3.483182 1.000000
0.233054 11.219101 6.233153 0.000000
5.193119 -15.158698 10.754131 0.000000
16.834338 17.184801 7.078627 2.000000
-12.068866 9.007954 10.308738 1.000000
12.343220 -8.996568 14.669107 1.000000
13.986187 -4.166250 8.958348 1.000000
3.108951 -14.016444 10.122442 2.000000
-15.814603 -5.229409 10.594537 1.000000
-14.648121 -15.089362 13.304160 0.000000
-8.584308 2.511986 2.729673 0.000000
23.535788 -7.084576 9.335270 0.000000
-18.786744 -3.209800 2.103556 2.000000
0.280055 -5.283549 11.961395 2.000000
-14.416277 19.907584 3.756459 0.000000
2.139525 -21.064754 6.556821 0.000000
-17.946642 -18.886065 12.110968 0.000000
-21.560434 -23.128797 13.124924 0.000000
-3.519060 8.544443 10.696218 2.000000
-8.290655 19.963799 8.650289 0.000000
-4.647605 -9.785993 13.825846 0.000000
4.464430 6.708044 13.931036 2.000000
-4.006232 -7.460499 7.623924 1.000000
-16.732998 18.196805 7.021754 0.000000
-7.008132 -22.831073 7.783567 1.000000
-15.160992 -1.085347 13.882407 2.000000
3.367237 11.737460 4.611486 0.000000
-8.323640 -11.382471 5.365475 0.000000
-4.393149 23.604116 2.697122 0.000000
-2.438766 16.379917 6.808288 1.000000
18.232503 0.914139 2.864953 2.000000
-16.628319 12.697199 3.746092 0.000000
3.823762 -5.902069 7.699385 2.000000
-8.636084 -15.782703 11.359614 2.000000
13.961192 -20.846097 8.958434 0.000000
-22.485669 16.355958 3.042799 0.000000
-19.857548 -11.490164 0.659370 1.000000
5.670848 23.760356 2.163103 1.000000
4.727822 -2.445021 6.020285 2.000000
-16.661490 21.990938 14.466384 1.000000
-12.287049 21.686801 10.818688 0.000000
5.464872 -11.325130 10.673246 2.000000
-10.093529 13.798919 10.408872 2.000000
10.655078 -11.749542 13.938864 1.000000
23.843152 -14.307220 6.969983 0.000000
8.907961 -5.921017 11.018758 1.000000
-17.230027 23.775279 5.912273 0.000000
-19.211613 -5.657925 5.828786 0.000000
24.495085 13.713855 5.004788 0.000000
23.823553 17.812473 12.308720 0.000000
7.960146 -10.908436 12.556824 0.000000
-0.911923 2.382935 9.664079 2.000000
-18.866292 8.937781 14.956488 0.000000
22.416358 -8.557697 0.893100 1.000000
9.880027 5.006922 0.441819 0.000000
-1.769969 -5.362317 3.211932 2.000000
18.466666 -5.870275 2.168396 0.000000
-13.417145 -14.488318 3.640399 1.000000
-5.757563 -24.040734 4.415267 2.000000
11.365264 -20.873047 13.046559 1.000000
-20.061844 18.366242 10.332502 1.000000
9.016600 -3.132329 6.714093 0.000000
-8.745628 -14.670291 7.054321 0.000000
5.031557 -22.863800 11.639730 2.000000
-14.077590 1.385349 12.072107 0.000000
-19.258514 -11.566124 12.014696 0.000000
-16.164373 7.034143 0.232749 1.000000
13.977714 -10.162689 13.669236 0.000000
19.385934 2.702201 0.336796 0.000000
14.085510 8.214419 2.560714 1.000000
23.726872 13.310466 5.208505 1.000000
-1.673745 -7.726477 11.338516 1.000000
11.868630 -13.376134 4.381801 1.000000
2.483848 -16.322296 12.564443 0.000000
20.979384 7.942037 14.586369 0.000000
-23.575422 -22.898612 9.504860 0.000000
-10.614959 -22.823385 5.926160 0.000000
-8.435284 -2.925537 5.651571 2.000000
-21.421065 7.174783 0.970875 0.000000
-7.538282 7.203571 5.951531 0.000000
-10.314968 -17.494542 14.091418 2.000000
23.810824 -23.772377 14.711381 2.000000
6.867473 -16.919414 4.751086 0.000000
-6.235551 -17.435517 3.930693 0.000000
-13.616726 0.696165 1.893090 1.000000
-3.963329 7.739574 13.159711 1.000000
-18.185483 19.438661 1.053567 0.000000
19.704296 -24.938723 6.162294 2.000000
14.806491 14.445763 2.340003 2.000000
8.042579 -20.549099 8.475259 0.000000
2.700838 -14.531858 1.581462 2.000000
-1.575105 -4.257427 5.391257 0.000000
8.379173 11.023608 14.096977 0.000000
-23.393248 -5.272281 7.628104 0.000000
-10.845915 -6.395331 0.384785 0.000000
-14.508844 16.008676 9.386896 1.000000
-0.480564 23.014692 13.034860 2.000000
-15.809100 9.483698 4.306071 2.000000
-4.460630 3.558116 14.766524 1.000000
24.169729 9.639134 1.847090 2.000000
-1.153904 -17.204120 6.631302 2.000000
-2.077091 -5.207697 1.380797 1.000000
9.053958 18.315219 5.327787 1.000000
22.276352 3.472186 11.916605 2.000000
-14.543195 -23.621755 1.306451 2.000000
-18.589104 -21.244300 6.960423 0.000000
-19.674573 24.221401 14.926751 0.000000
-12.204884 -16.882143 0.850887 0.000000
-0.012168 7.427074 8.779498 1.000000
10.862663 17.411518 4.945624 0.000000
-5.363371 -20.874402 8.755334 0.000000
-13.811070 -6.999752 0.442787 0.000000
1.529088 -7.308346 11.159591 2.000000
15.537898 16.057387 12.613932 0.000000
14.036467 7.234160 7.528471 0.000000
-3.120175 23.003226 3.912310 0.000000
11.280231 23.988893 1.601499 0.000000
7.783122 -12.425245 7.178818 0.000000
-8.232664 19.233858 11.501375 1.000000
10.478156 -8.504004 3.227654 2.000000
-0.235635 1.432949 14.163911 0.000000
-22.087063 16.252788 8.840352 2.000000
22.157408 -24.378582 2.789998 1.000000
-18.492833 -14.932757 1.918643 0.000000
-23.410169 -12.974273 8.869253 0.000000
-20.906901 15.916245 3.367310 0.000000
-24.646903 -16.108684 1.770366 2.000000
21.413055 -15.225276 3.361033 0.000000
-4.284599 24.017376 7.018405 0.000000
-17.993265 -13.722595 11.770270 0.000000
6.947226 -14.113722 11.770906 0.000000
-2.138486 16.988136 4.337464 0.000000
0.543141 1.659540 6.252398 0.000000
10.242063 -23.882913 7.303872 1.000000
-16.075142 -3.580978 7.294427 0.000000
-7.204716 -2.970015 5.300790 2.000000
-4.634502 4.647616 9.551435 1.000000
-10.064868 -9.061497 0.214353 1.000000
-22.707701 -2.312878 1.082146 2.000000
-21.638934 -22.191158 7.707044 2.000000
12.885741 -24.358325 12.635882 2.000000
3.178986 -24.836177 3.263224 0.000000
-18.218376 21.067862 7.356668 0.000000
-12.121697 12.842019 1.229829 0.000000
-23.070989 11.759381 14.159349 0.000000
-20.631220 -24.731569 12.229556 1.000000
23.353325 0.579176 11.486418 0.000000
-5.893320 23.179808 7.707374 2.000000
-18.498073 -9.425008 8.415322 2.000000
-13.175292 -7.056646 11.003542 2.000000
14.039629 -10.266416 9.142420 0.000000
0.634831 24.472333 12.767652 1.000000
6.137553 2.625317 12.484920 1.000000
9.578733 -17.708394 2.728796 2.000000
-1.552909 11.251689 6.146449 1.000000
7.455609 16.458929 8.201121 2.000000
1.451842 -14.743231 9.306766 1.000000
-17.742106 -20.663347 0.108808 0.000000
5.116151 6.959008 4.951674 0.000000
-7.972022 -23.456404 11.007072 0.000000
-14.592436 21.936924 12.910312 1.000000
-0.016728 6.328450 0.843142 0.000000
22.787417 -15.534781 4.178476 0.000000
-5.862945 -16.789370 14.688157 1.000000
-13.682617 21.026081 8.391902 2.000000
-22.535848 7.209020 4.364559 1.000000
11.570174 19.061693 5.354425 1.000000
-21.275040 10.564608 7.667928 0.000000
15.262487 6.991621 14.686371 1.000000
17.269515 -16.021053 12.959345 2.000000
13.336028 -11.649478 0.819416 1.000000
16.486501 18.112828 13.483580 0.000000
24.724651 13.047006 13.650818 1.000000
22.171284 -15.781489 3.983290 2.000000
1.984281 11.326426 14.155308 0.000000
17.184559 10.307829 8.689824 2.000000
21.133517 -10.898703 11.780606 0.000000
-14.264917 7.014600 11.172777 0.000000
4.878292 -7.610976 2.374844 0.000000
16.522453 14.019771 4.356113 2.000000
0.747080 8.188006 10.853086 0.000000
-4.025417 -11.061562 9.802187 1.000000
-3.759887 -23.690356 6.654227 0.000000
16.349537 21.747738 14.536116 1.000000
13.008285 20.209568 2.017851 0.000000
-6.379002 0.057186 1.029667 0.000000
13.020356 -23.172204 9.266717 0.000000
20.478291 12.678662 8.149445 2.000000
-19.969590 5.357810 11.664873 1.000000
-9.061173 -9.475310 10.746638 2.000000
14.787561 21.868712 12.961182 0.000000
-9.769934 -0.838133 9.831629 2.000000
-2.192549 -1.487618 10.129173 2.000000
11.956190 0.056141 13.397355 0.000000
4.671286 8.653865 2.469415 2.000000
-5.517590 -10.165735 5.389249 1.000000
-16.638344 22.353641 8.154941 0.000000
19.990225 -19.242917 3.862718 0.000000
7.528392 -15.230808 11.566130 0.000000
24.914705 2.392006 9.809896 1.000000
-13.651600 24.347620 4.017355 2.000000
11.756547 11.622360 3.254347 1.000000
-23.156134 -14.002518 2.352379 1.000000
3.383424 -4.335277 3.700198 0.000000
21.111922 -21.086923 10.452872 2.000000
24.290100 -22.136355 7.388385 1.000000
-1.604011 14.563499 4.007962 0.000000
20.423650 -1.919261 2.306151 0.000000
-18.637160 19.242259 7.754654 0.000000
-11.392526 -24.816004 0.627724 0.000000
-11.987605 -12.624398 2.459821 2.000000
-7.702095 9.705173 1.910790 2.000000
-1.655297 9.513962 13.713267 0.000000
7.188302 14.601661 8.785463 2.000000
16.919332 17.608569 3.768994 0.000000
20.578464 12.545895 11.617458 1.000000
0.569148 22.892200 1.112219 2.000000
-23.592528 9.710504 4.092809 0.000000
5.867897 -4.081245 9.284671 0.000000
-4.545846 -10.400028 13.648174 2.000000
9.227276 -0.040760 14.708429 1.000000
12.506989 22.194071 8.676750 2.000000
10.314690 -3.047468 3.676433 0.000000
-8.802835 2.056451 2.308226 0.000000
-13.311952 9.531690 3.034592 0.000000
-7.242868 -24.401030 4.331551 2.000000
-7.515292 -20.663807 9.471656 2.000000
-4.215251 -19.393510 11.379609 2.000000
-19.517916 8.880679 1.970121 1.000000
1.057364 -20.186551 0.941889 0.000000
5.173893 -14.467754 12.837798 1.000000
7.597101 -10.886257 1.080436 0.000000
13.172376 5.199422 7.150022 1.000000
8.892533 -22.681550 5.018872 0.000000
-0.001763 23.218120 14.432968 2.000000
-6.906673 -11.946827 13.571664 1.000000
-20.148903 23.659138 14.923378 0.000000
-17.871679 13.792353 4.381034 1.000000
-6.047934 -12.060909 13.366250 0.000000
-3.775164 -4.239953 6.980163 2.000000
-11.666686 1.771122 12.391213 1.000000
18.577251 1.213729 10.938101 0.000000
-14.581345 9.723212 14.219635 1.000000
-6.725615 -13.584258 13.162969 2.000000
24.730394 7.194561 10.958485 0.000000
-6.393456 -2.066668 2.044917 1.000000
-13.706744 15.195505 3.258325 1.000000
19.151974 -5.057108 14.410672 2.000000
-18.493746 14.723512 8.488879 1.000000
12.792883 -10.361148 12.981868 2.000000
19.507237 8.551714 11.439247 2.000000
18.417603 -0.853785 14.542313 2.000000
13.510984 3.792458 3.706198 1.000000
21.946996 -3.048712 6.534238 0.000000
-4.846571 24.182766 9.399487 0.000000
9.042766 20.885148 10.135829 1.000000
-17.196174 -20.664750 7.676937 0.000000
5.130303 -19.402027 9.838310 0.000000
-19.587562 -16.630306 0.669451 2.000000
-2.864170 9.139825 6.639571 2.000000
-20.075657 -20.036248 3.417385 0.000000
-12.160958 4.224007 13.194342 1.000000
24.140998 0.507008 5.938977 0.000000
9.611880 3.053948 9.291747 0.000000
3.231992 -17.854182 7.500519 1.000000
-0.538122 21.410612 1.769971 2.000000
20.570978 -18.416929 11.693823 0.000000
-14.257872 24.972711 6.440490 1.000000
-9.389384 -21.273256 1.768182 1.000000
3.726969 19.026761 8.847957 0.000000
21.350464 22.902976 5.351750 0.000000
5.940522 15.195336 9.127317 2.000000
-8.681784 -5.704705 2.706179 0.000000
-14.208794 -15.631238 13.929964 1.000000
19.251591 17.147323 4.980180 0.000000
-3.491623 22.067979 13.798912 1.000000
2.876856 -23.628807 12.086562 2.000000
-17.620210 13.163388 6.053613 0.000000
-21.293279 1.504366 13.742800 1.000000
-15.303516 -0.363276 3.741925 2.000000
-23.431702 -11.242635 2.128687 0.000000
13.541022 -16.731178 8.690305 0.000000
4.000179 0.951582 1.285270 2.000000
-14.302802 7.250932 1.602357 0.000000
3.086600 -0.526911 0.328522 0.000000
23.230642 8.821432 2.752918 0.000000
-6.594692 17.169719 10.806139 1.000000
-20.496983 -3.494212 5.331317 2.000000
-18.762740 11.309131 1.331795 0.000000
-6.964343 -7.452690 12.137930 0.000000
-4.751408 -6.769948 6.066601 1.000000
-1.998558 -0.632202 5.031796 1.000000
11.227169 -11.042736 12.822109 1.000000
8.290132 -15.560351 0.138559 0.000000
5.033182 -8.650452 9.709140 1.000000
-6.798108 -16.837929 7.526503 2.000000
22.119681 8.808733 14.758940 1.000000
7.119408 20.331175 0.827599 0.000000
7.951833 -5.372535 3.231624 0.000000
6.200908 -23.717941 4.980066 1.000000
-5.398630 -1.654098 4.774356 0.000000
-7.556966 7.221482 13.930727 0.000000
-6.460190 -18.036573 14.436632 0.000000
22.896257 10.865893 12.336746 1.000000
23.043411 -18.549914 12.396000 0.000000
1.376543 -18.575922 6.760891 0.000000
-16.391089 20.451642 5.659615 0.000000
5.153905 12.041666 7.871601 1.000000
-8.959422 15.401064 0.802508 1.000000
-20.236961 4.707515 3.486248 2.000000
19.242896 -14.078170 14.415591 2.000000
0.838136 21.735031 13.780273 1.000000
-8.387219 19.735446 6.295542 0.000000
-21.960368 14.439694 12.981039 0.000000
-19.963391 -2.453418 2.426953 1.000000
9.442701 23.321283 1.522706 2.000000
-24.709503 -12.214540 2.748545 1.000000
-17.765843 -23.074687 3.904818 0.000000
10.265990 12.870190 5.121754 2.000000
15.025379 4.374524 10.628985 0.000000
-1.632315 18.082460 12.988223 2.000000
16.878991 20.153095 1.765288 1.000000
-9.318875 8.359490 7.773797 2.000000
10.540798 -1.035234 8.196121 1.000000
-14.919192 1.991606 0.905668 2.000000
1.063914 -6.150538 10.891965 2.000000
-2.988054 1.181246 13.210279 2.000000
14.643695 4.519988 7.899288 2.000000
-19.001186 14.005941 2.371813 1.000000
-21.764580 7.415841 7.198176 1.000000
-24.489623 -3.507581 12.607029 1.000000
4.372565 2.795548 7.893249 0.000000
-5.604395 5.667896 1.458964 0.000000
-18.485012 9.660772 6.573145 1.000000
-21.214434 -7.591677 1.904725 1.000000
-14.465398 1.192271 4.785034 1.000000
1.009593 -8.290682 4.951795 0.000000
22.668152 -15.896324 11.074377 0.000000
13.119207 12.768527 0.628305 1.000000
-2.585105 -10.707516 12.083126 2.000000
6.884588 -21.877718 4.906557 1.000000
-8.096064 11.504885 7.779062 2.000000
0.438980 20.216237 12.161448 1.000000
7.555942 -11.937186 6.212607 0.000000
12.540385 19.471337 4.316762 1.000000
-9.071856 -14.856754 11.327759 2.000000
-13.650001 -20.141948 13.769033 2.000000
3.181658 -16.696324 0.309773 0.000000
-7.851342 17.906853 0.843021 1.000000
-12.389347 -18.481502 7.879856 1.000000
9.321210 -13.056574 6.216566 1.000000
-15.914485 2.447495 6.688503 0.000000
5.315015 -4.564178 3.412487 2.000000
-18.335934 -21.000970 13.223030 1.000000
18.899578 -13.036170 12.185333 1.000000
24.130941 -0.109006 9.928729 2.000000
9.979783 -3.199421 10.064868 1.000000
20.301493 -21.570707 12.858420 0.000000
-21.644519 7.546114 2.900084 2.000000
23.997522 -12.101401 14.137433 0.000000
-10.531825 11.405335 2.168364 1.000000
-2.768690 11.759031 13.164635 2.000000
-19.404759 9.430530 7.867160 0.000000
5.628640 -9.745051 4.558679 2.000000
-12.290841 11.830857 9.416936 0.000000
6.927297 2.605963 2.589467 0.000000
16.777268 18.659883 0.843271 1.000000
-11.836162 -13.953996 9.801891 1.000000
-22.780719 0.582795 4.839023 2.000000
-12.263992 -14.715418 2.994329 0.000000
-17.461524 4.295275 2.712516 2.000000
-13.664698 3.229870 10.637821 0.000000
24.037692 18.289846 5.199753 2.000000
10.372029 -17.741189 11.946782 2.000000
-18.603780 12.317674 14.086613 2.000000
9.709067 -1.580185 8.073605 1.000000
-16.839562 -9.518839 1.985165 1.000000
-24.040057 -12.233478 9.900233 0.000000
19.301895 -11.099347 1.802787 0.000000
-12.974508 -11.765212 13.352029 1.000000
6.697378 6.380953 2.734048 2.000000
13.891782 -8.004414 2.483741 0.000000
14.480818 6.270168 0.138139 0.000000
11.248397 -24.984087 3.172406 0.000000
9.246462 -16.035624 14.330950 2.000000
-24.304395 -24.597434 10.550795 1.000000
23.600129 16.205083 11.015611 2.000000
6.765119 -12.554428 12.857658 0.000000
-14.773932 19.598647 11.753913 2.000000
-15.731735 13.985226 5.180604 0.000000
-22.089342 -1.597820 12.459599 0.000000
9.547886 4.604199 11.466747 0.000000
22.997405 -15.370385 6.269476 2.000000
-0.783079 8.826171 9.254390 2.000000
-5.370997 4.350499 1.182937 2.000000
22.407535 -18.490323 11.178393 1.000000
18.706334 -14.644094 0.887666 2.000000
4.956451 7.985386 14.088606 2.000000
-17.695798 4.368410 7.257022 2.000000
-9.645186 14.020002 1.335870 2.000000
-8.324951 -24.362035 6.511596 1.000000
-2.321388 -4.822712 6.410378 2.000000
-1.835010 8.959754 12.123156 2.000000
-9.470720 -18.978432 11.844116 2.000000
5.815894 6.389566 2.586345 2.000000
3.043746 8.275265 13.438682 0.000000
-1.425709 -6.625838 7.792244 0.000000
-5.580576 -8.350534 7.254993 1.000000
-9.868460 -10.213406 9.321824 1.000000
-4.754581 -8.500123 1.662208 2.000000
-20.732503 1.328520 6.113123 1.000000
-22.712114 19.103517 0.500097 0.000000
0.825890 -13.133348 2.468278 1.000000
14.558488 10.304612 5.657909 0.000000
10.854151 -24.437562 9.517864 2.000000
8.214532 -12.890683 9.833091 0.000000
-16.974635 4.264915 6.682793 2.000000
12.038809 1.296457 12.461844 0.000000
8.385642 17.830779 9.847125 1.000000
-3.387900 11.462814 13.911625 0.000000
9.745427 -7.503651 11.169108 2.000000
14.104515 23.121173 12.338233 0.000000
-18.817780 16.127491 12.310941 0.000000
-1.922333 13.092850 13.730635 2.000000
-2.247375 -8.350201 12.785342 0.000000
10.722562 -24.188147 3.886718 0.000000
23.983668 -0.420434 3.002393 2.000000
5.933125 2.173279 7.849264 2.000000
-14.320184 -12.719116 0.869213 2.000000
11.715424 7.700804 2.334536 0.000000
13.806484 6.937573 4.319355 0.000000
-8.034629 17.775680 4.765763 1.000000
-10.433664 22.793837 9.457352 0.000000
3.173844 -14.265924 1.089540 1.000000
2.185315 -20.925451 8.762074 2.000000
-24.611697 -8.385054 8.013749 0.000000
15.123649 -24.407429 3.136695 0.000000
14.666789 22.008219 8.486767 2.000000
21.325255 24.432938 7.767232 0.000000
-14.262058 -15.135867 6.415546 1.000000
3.231232 21.718890 1.165354 0.000000
13.650726 4.303832 10.057647 1.000000
17.622926 -21.218757 10.061973 0.000000
-13.789111 5.914459 9.609239 0.000000
20.160425 -4.344262 2.604419 1.000000
7.372854 23.589285 7.877462 0.000000
13.896766 1.963049 2.875425 2.000000
-16.113206 14.176287 2.081982 0.000000
-16.699312 23.041886 0.219238 1.000000
6.955378 -13.754857 9.826066 2.000000
-11.961912 2.879772 5.199642 0.000000
-15.446550 2.219256 12.857645 2.000000
-8.203931 13.156541 5.871122 0.000000
9.217148 0.317543 10.431981 2.000000
-17.171671 7.203278 4.418485 0.000000
-4.988157 -8.546051 0.553240 1.000000
19.452198 -11.825858 6.651507 1.000000
-4.191621 -15.396031 12.998897 1.000000
-9.683189 -21.973070 0.874567 1.000000
16.250986 21.261533 3.922402 2.000000
23.805327 4.323589 9.024198 2.000000
-15.835436 -8.949378 12.095044 2.000000
1.000618 -1.664816 13.885593 0.000000
-2.274969 5.762017 13.902853 0.000000
-22.926350 23.368410 11.654230 0.000000
-8.221739 -15.267691 14.578247 0.000000
12.739376 4.674594 13.705994 0.000000
-18.537791 -8.000991 6.869864 0.000000
1.279477 6.682804 6.906661 0.000000
12.885469 -17.258201 3.961434 0.000000
-16.637409 14.340114 14.736206 1.000000
-0.206406 22.212537 13.170843 2.000000
22.150728 21.087191 1.343657 0.000000
-6.508945 7.752203 11.476840 2.000000
13.345096 18.048489 13.512812 0.000000
-5.227869 -12.235488 2.328319 2.000000
6.148513 17.613131 11.836978 1.000000
-24.958576 -20.166583 11.410634 1.000000
3.702196 -11.412706 12.619550 0.000000
-5.781505 13.549447 10.697428 1.000000
-10.439127 14.701869 14.989561 2.000000
4.417969 8.808068 9.558148 2.000000
23.856357 14.931866 4.014079 0.000000
15.520082 1.776537 10.044915 1.000000
-24.635412 22.703764 7.387368 2.000000
-12.549497 -10.265992 9.682747 1.000000
19.259126 16.635020 2.719761 2.000000
-12.802777 -13.239162 5.593056 0.000000
-4.014402 -18.878484 10.182837 2.000000
-21.597473 -24.716270 4.708696 1.000000
23.321873 16.886151 1.081290 0.000000
-24.742162 18.938087 9.468899 0.000000
9.869853 23.205692 5.135517 2.000000
-1.435133 6.030554 2.468306 2.000000
13.831924 11.207935 9.106990 0.000000
-15.704304 19.200467 3.776535 0.000000
6.689870 -12.959071 1.935536 2.000000
15.828560 17.307370 0.145188 2.000000
13.684741 -22.782396 6.334609 2.000000
-15.599574 -2.546103 14.030384 2.000000
-16.361696 15.313187 6.884540 0.000000
-18.334540 2.439775 7.846160 1.000000
24.616281 8.663408 0.176014 2.000000
3.116066 -18.595691 14.364312 1.000000
13.506018 -9.591452 8.260880 1.000000
12.926143 -12.740010 3.517779 0.000000
-1.261499 -8.016520 2.357986 1.000000
-18.216751 -9.295781 0.247419 1.000000
-19.070993 -9.965530 9.301017 0.000000
-11.357054 4.537821 10.030259 1.000000
-4.761189 -16.120603 10.441746 2.000000
14.195175 14.300596 11.806057 0.000000
-1.234050 17.532991 6.628249 0.000000
-8.387335 9.038401 1.929971 0.000000
6.465594 9.100145 2.782898 1.000000
1.238868 16.873632 1.646458 0.000000
-4.580215 -1.470428 0.392875 2.000000
18.173831 -14.915336 12.793617 1.000000
12.199950 2.558294 14.806217 1.000000
22.757795 23.267293 3.043597 0.000000
20.461797 -3.814967 1.941757 0.000000
-1.489577 -22.533250 13.814537 1.000000
-2.309938 22.997296 11.201106 2.000000
15.975674 14.633714 0.171969 1.000000
-12.600507 -10.629233 3.098102 0.000000
-9.338909 21.610137 14.260600 0.000000
-18.970049 -6.072323 4.094626 1.000000
12.509919 21.637063 3.180572 0.000000
-20.303995 15.080515 4.026435 2.000000
9.418733 -12.344443 6.012624 1.000000
-3.540120 -13.001526 2.882071 0.000000
4.551380 9.308238 12.954178 0.000000
7.779677 -1.851185 12.710368 1.000000
-18.193946 17.981101 11.324718 2.000000
16.995311 -6.987492 8.675747 2.000000
18.266821 -5.651397 9.783192 0.000000
22.551848 5.545588 6.558365 0.000000
-21.090006 -18.337987 0.332322 2.000000
0.659888 -8.389015 10.110694 0.000000
24.493138 -9.706192 0.049030 2.000000
-15.141711 -13.694441 0.867912 0.000000
-11.198692 -22.383425 3.029155 2.000000
6.613683 21.658670 13.869698 2.000000
-22.148067 -13.617468 10.409500 2.000000
-19.174585 3.037201 5.011948 0.000000
18.620929 16.459110 6.332921 0.000000
22.750731 8.726495 13.800344 1.000000
17.618630 16.073194 9.426365 1.000000
-8.387365 9.644820 2.177833 1.000000
-17.909260 22.995729 8.664817 2.000000
-21.509667 21.065588 1.365048 0.000000
11.019363 9.805674 7.126043 2.000000
18.713251 17.135051 9.852129 1.000000
-7.144507 1.502390 7.159278 2.000000
-16.511688 24.307484 0.108229 0.000000
1.915844 -12.876330 6.643691 0.000000
18.586863 4.400375 8.459307 2.000000
-8.217749 -6.821899 10.524438 0.000000
-21.529050 -9.085312 6.691003 1.000000
-0.601388 14.793344 8.911392 1.000000
7.525822 8.328199 13.314887 0.000000
13.843591 24.994339 12.208944 1.000000
13.399404 -8.265988 8.604214 1.000000
-7.016088 -23.944168 1.288555 1.000000
0.397096 24.346055 1.352106 0.000000
-10.809925 -16.604689 4.598127 1.000000
-15.282554 -9.004846 5.944347 2.000000
2.957205 12.864769 10.640645 2.000000
-8.856449 -18.866926 6.820634 2.000000
-10.950186 8.999858 11.705745 2.000000
-10.216558 -23.757579 4.313434 0.000000
-15.574278 -23.999988 8.218017 2.000000
-10.176915 21.913135 3.560562 2.000000
10.413092 -9.553693 9.581018 1.000000
-3.638246 7.241100 8.302678 2.000000
-3.475345 -12.679809 0.154138 1.000000
15.014420 7.859895 11.661302 1.000000
8.143262 12.250335 8.803470 0.000000
-18.830639 -3.028023 7.162851 1.000000
4.473043 24.032691 12.835808 1.000000
13.921204 -12.666751 3.922916 2.000000
0.290176 16.370156 3.441544 0.000000
17.706960 -13.683725 1.146925 0.000000
-18.190032 -17.240393 12.948248 0.000000
-13.795689 2.994817 3.865135 2.000000
8.979471 11.041003 4.987799 0.000000
14.112532 -14.771670 6.862009 0.000000
14.611918 -21.579628 14.315374 2.000000
-6.957356 4.826068 4.891802 1.000000
-3.131559 -18.630100 6.164612 0.000000
-23.908031 -15.449321 8.963176 0.000000
-5.324646 -4.221784 3.422001 2.000000
15.430652 -24.815078 1.016831 2.000000
-23.456449 -12.778858 0.772277 2.000000
1.409473 -9.785590 7.791200 2.000000
-14.767816 4.512690 11.123288 0.000000
15.013298 0.729452 11.465437 0.000000
5.589096 -9.435070 8.501410 2.000000
-3.229612 -6.092367 10.754122 0.000000
11.678840 -23.868773 10.415212 0.000000
8.699163 19.075630 11.072417 1.000000
1.651779 20.281114 3.769160 0.000000
18.073176 23.005656 13.348604 1.000000
-17.423291 21.015163 14.925233 2.000000
-24.090898 -14.928594 3.635698 0.000000
23.526407 2.441142 1.673528 0.000000
6.695364 8.495649 4.152237 2.000000
-17.522005 -24.445312 5.733241 2.000000
14.721064 -1.790883 2.768815 0.000000
14.580900 -10.656569 9.641548 0.000000
-4.625568 14.942870 5.698326 0.000000
-13.223851 -15.553352 10.307015 0.000000
-19.492595 14.662292 9.680363 0.000000
-19.768695 18.189649 3.778828 1.000000
-23.994282 -17.129422 12.511122 2.000000
-14.290644 -4.644504 0.825490 2.000000
8.758467 3.605190 10.301170 1.000000
5.089993 -20.306267 9.200919 1.000000
21.113910 -18.190214 2.264079 0.000000
0.190882 22.559459 0.791131 1.000000
-18.113239 2.335396 8.101727 0.000000
-20.712486 17.974725 5.736895 0.000000
4.168855 4.354285 3.687709 0.000000
-17.609658 -5.606091 8.017646 1.000000
-19.887037 -16.780678 0.790018 2.000000
-4.178071 -2.137841 8.104168 0.000000
16.827771 -3.122565 5.566553 0.000000
19.264715 0.891471 12.989789 0.000000
24.682289 18.717673 5.445800 0.000000
-12.457691 10.364256 1.628141 2.000000
10.497548 -15.988114 13.447843 2.000000
-14.103943 4.807752 5.358906 2.000000
-23.116250 -23.638562 4.748201 2.000000
17.520260 3.207558 2.278796 1.000000
-17.612364 -22.113579 4.414738 0.000000
-16.260840 -20.633357 14.861720 1.000000
-7.451236 -18.063919 11.123877 0.000000
-7.596437 19.842230 9.726855 2.000000
-2.893587 -5.097653 2.192317 0.000000
-21.674301 -5.920090 10.000834 0.000000
-22.988916 -9.995510 12.059915 2.000000
14.272931 -5.551753 13.619991 1.000000
-18.249301 -15.213573 12.015117 2.000000
-18.025507 4.417453 1.243639 2.000000
15.386352 -14.575406 12.339311 0.000000
0.146579 -14.920960 0.458705 1.000000
-10.314134 16.173700 12.061365 1.000000
18.405625 21.717546 12.838251 0.000000
-3.101760 14.193262 4.726853 1.000000
-24.268857 1.104199 13.431923 1.000000
-12.056500 -17.596169 4.610914 2.000000
-15.035854 -0.716668 14.751468 1.000000
10.372574 -19.558685 5.149602 1.000000
20.948967 -1.246508 5.671150 0.000000
14.933811 14.361958 8.850991 1.000000
5.882407 1.085237 10.186806 1.000000
23.939933 5.059460 0.027547 2.000000
-10.002641 16.706094 10.748088 1.000000
0.918410 11.143661 2.509396 1.000000
-7.624440 -10.101313 2.656137 1.000000
5.871719 9.178283 5.626311 0.000000
18.086173 -7.360018 6.279244 0.000000
9.866765 -4.083276 13.127614 0.000000
17.946627 7.814027 9.609351 1.000000
5.707163 13.893998 12.758451 2.000000
-23.781136 12.921391 3.597095 1.000000
22.780748 -13.848185 11.592334 2.000000
-8.304650 21.806885 8.154138 0.000000
0.188952 23.214758 5.723549 2.000000
-8.161896 -10.728058 11.096990 0.000000
15.882959 18.748968 2.780285 0.000000
-3.785668 -11.132821 0.279577 2.000000
11.369112 12.566669 14.693021 1.000000
11.750538 17.980257 10.030395 1.000000
-22.192408 19.513121 2.986627 0.000000
5.338781 24.114123 5.855058 0.000000
-6.791648 11.596110 0.747989 0.000000
-9.910971 -16.068259 12.489027 1.000000
1.334816 -4.565045 1.718345 0.000000
-15.186078 -16.683731 4.479546 2.000000
6.297978 -11.941218 0.505710 0.000000
21.172369 16.074292 11.112989 2.000000
21.621106 13.083835 6.622334 0.000000
-23.715643 8.946184 4.658830 1.000000
-22.341225 6.233975 3.684114 2.000000
-12.514137 19.088782 13.805251 1.000000
-5.648656 16.905979 5.311400 1.000000
-9.072579 12.696017 10.264824 2.000000
-5.647332 24.583242 14.022014 0.000000
-9.717583 -8.080801 9.351750 2.000000
-14.313437 15.357420 1.328691 2.000000
-18.026459 -20.820634 8.798589 0.000000
3.664502 -7.326157 3.918928 1.000000
-13.530955 6.692787 13.808192 0.000000
23.130460 8.100102 8.320705 2.000000
-23.733398 -24.828877 0.596338 0.000000
-12.814546 -14.726208 8.096147 2.000000
-1.043098 10.673815 0.806978 0.000000
-12.173485 22.083030 12.967436 2.000000
-1.976397 -13.824914 6.381429 0.000000
20.567728 -8.100644 2.032271 0.000000
20.008544 4.137307 10.363449 2.000000
-19.113631 -6.353550 8.635770 0.000000
0.000472 10.478274 5.162188 2.000000
15.845640 4.079235 3.747250 0.000000
15.404017 -8.635183 10.421297 2.000000
-8.872859 -11.125168 14.383125 1.000000
-10.112609 21.657756 13.990948 2.000000
-22.786303 -3.385264 9.083993 2.000000
14.229945 6.947196 1.559222 1.000000
-11.214651 -20.529573 3.818783 0.000000
7.777554 -5.968873 8.590212 2.000000
1.481113 1.898522 8.326430 0.000000
-19.308343 -1.938622 13.938689 1.000000
3.197676 -14.658468 5.542388 2.000000
5.522335 -18.985982 9.958545 2.000000
11.222771 -7.723745 2.594769 0.000000
-11.250801 -15.162608 10.319331 0.000000
18.307623 5.201495 6.761056 0.000000
-9.446172 -12.439167 0.884256 2.000000
-0.107744 -9.475405 6.242184 2.000000
-3.763088 24.173818 6.457915 0.000000
2.102941 1.758723 11.148449 0.000000
6.883563 -13.315915 1.662898 2.000000
12.144622 -1.591196 13.941543 0.000000
-6.306537 -15.134142 7.933255 1.000000
-9.211327 9.641048 0.974982 1.000000
7.915214 -8.774980 12.537247 2.000000
-5.817069 -14.739951 7.642948 2.000000
8.556005 -0.119662 5.000423 2.000000
4.322358 -9.361815 13.641770 0.000000
8.937666 -8.469020 3.463495 0.000000
6.907804 13.912698 9.369385 0.000000
10.357616 13.202762 9.008503 0.000000
-10.453015 -13.387417 11.883350 2.000000
3.495011 -1.921395 11.547365 0.000000
-7.093472 -8.719950 3.256173 0.000000
14.259858 23.012462 3.894560 2.000000
19.638058 2.075346 4.153880 0.000000
-19.021322 3.785849 2.860861 0.000000
-0.305500 -17.852124 2.701635 2.000000
5.300184 1.909780 7.888416 1.000000
-23.653395 3.370594 7.405714 0.000000
9.026891 14.911299 1.362933 1.000000
-22.190493 -16.438596 7.011301 1.000000
-4.314410 18.695323 0.477406 0.000000
-6.587660 -18.221063 1.875768 1.000000
-22.282825 24.780663 14.065431 2.000000
-11.195198 -12.361661 12.165051 2.000000
-17.957355 -16.390817 3.625576 2.000000
-14.098767 22.885568 5.060738 2.000000
-13.546865 -19.872778 5.120025 0.000000
12.183384 -15.130605 8.540906 0.000000
19.499607 11.458502 14.801948 2.000000
4.931862 -10.765686 8.208613 2.000000
-12.429921 15.564549 14.033125 2.000000
12.622488 -7.552351 5.839772 2.000000
24.981458 10.041263 10.699806 0.000000
-13.290375 8.267915 6.660667 1.000000
-13.285793 17.025792 6.577756 2.000000
-14.975820 16.586949 8.730762 2.000000
23.773567 -19.056681 9.259777 2.000000
-11.629279 -16.932540 13.234027 1.000000
23.808171 18.019402 1.916481 0.000000
-17.843231 -2.056192 3.532842 0.000000
5.786407 14.971110 5.691151 1.000000
-10.393770 -14.502378 2.289945 0.000000
12.619069 -2.920798 6.732201 2.000000
-11.614267 9.837343 6.941514 1.000000
6.626716 16.231663 6.892300 2.000000
-19.158031 -7.522881 4.269500 2.000000
10.520058 -16.109617 8.919859 2.000000
5.592517 16.928829 14.670596 0.000000
1.185848 -15.768441 11.461293 0.000000
24.410719 -10.368289 6.623829 1.000000
-13.578822 -3.642035 8.276179 2.000000
1.184881 20.433591 12.626361 1.000000
11.441096 -7.785191 5.880128 2.000000
-20.251101 -12.134360 4.295686 0.000000
10.423794 11.101144 8.883169 1.000000
21.677516 -15.167143 9.009762 0.000000
14.597544 -3.004107 0.485637 1.000000
13.400507 9.923393 7.015984 2.000000
7.721479 12.481455 1.827026 1.000000
-6.756962 17.490487 14.411170 0.000000
-0.577723 7.971433 7.689823 2.000000
0.028251 -13.783083 5.208699 1.000000
-6.090558 -10.182675 8.551549 1.000000
8.734475 -5.499546 8.904291 0.000000
18.452715 0.507360 7.924062 1.000000
-1.423945 -2.496731 14.287674 0.000000
15.500922 14.416967 9.008376 1.000000
1.979890 -8.740413 14.241371 0.000000
-10.141585 -8.836160 11.586300 1.000000
17.638977 -11.380872 12.009322 0.000000
-6.883282 -0.452539 1.523632 0.000000
-21.534067 -24.839935 6.696455 2.000000
9.368809 -5.389210 9.075287 1.000000
22.390214 24.011966 12.036733 1.000000
-19.093158 -14.632501 0.179963 0.000000
21.532646 -4.786029 5.740934 2.000000
-18.377489 8.651416 13.053437 0.000000
-3.889775 -16.950073 12.196087 2.000000
1.126824 2.564504 4.374109 0.000000
4.761694 13.551026 2.493968 2.000000
7.538090 -23.931952 8.042837 2.000000
14.450918 -9.554612 5.464485 1.000000
22.366178 20.453288 10.253114 1.000000
-15.838385 -8.454383 8.520369 0.000000
-18.990984 17.076250 6.381235 1.000000
11.905679 -6.489996 3.216184 1.000000
2.607568 20.943941 8.692727 0.000000
-5.481572 9.542696 8.604986 0.000000
24.611118 -19.678104 4.403193 1.000000
-16.532468 0.797663 8.460217 2.000000
-17.772431 -21.920444 10.482034 1.000000
-4.287430 -17.924443 13.504168 1.000000
-7.912730 7.510456 7.149595 0.000000
20.677536 15.835539 5.987748 1.000000
-11.401340 4.207665 6.514788 0.000000
20.111034 -1.921997 12.558027 2.000000
-7.622235 -14.522445 8.495088 0.000000
23.488963 -13.856904 14.287135 2.000000
21.120899 3.282673 9.271227 2.000000
5.688896 18.811853 5.593303 0.000000
-13.341700 6.540127 4.765074 2.000000
-21.118996 5.937508 10.411849 1.000000
-15.037551 1.754907 12.818912 0.000000
-23.071042 3.266913 0.527333 0.000000
1.123746 11.097572 12.601633 1.000000
6.876727 11.115745 0.845448 0.000000
17.465066 24.184596 0.806687 1.000000
-8.515664 24.678733 7.993091 2.000000
10.017656 -10.462221 14.830802 2.000000
4.177300 15.777987 7.475083 1.000000
15.166234 15.876432 8.650157 1.000000
23.622217 6.380028 13.901265 2.000000
23.801797 1.932909 3.609044 0.000000
15.474417 6.415574 6.896718 2.000000
-11.907945 11.893593 6.228448 0.000000
-7.239022 6.310375 4.507273 0.000000
-5.805263 -9.386258 13.864515 1.000000
0.346546 -4.423287 10.300739 0.000000
-5.426928 23.225643 10.535090 1.000000
-18.967099 -23.478220 2.289530 2.000000
-0.039492 12.866350 2.973356 0.000000
20.280932 -23.081354 4.822865 2.000000
-10.413411 -0.096145 4.502922 1.000000
15.720492 -18.464297 11.433685 2.000000
-20.829481 -15.076652 5.793471 0.000000
21.768933 7.875997 5.824303 1.000000
2.085738 10.417577 6.743284 0.000000
5.533697 -1.773725 0.358568 0.000000
-11.955297 16.571204 5.569930 0.000000
-0.019469 11.332841 12.549619 2.000000
23.126107 -0.815655 0.329000 2.000000
-16.830758 -11.304747 9.984962 2.000000
19.956333 20.693376 11.128167 1.000000
-9.346412 4.921760 2.435077 1.000000
23.357944 -7.471403 3.428109 0.000000
-16.957969 -5.632215 14.109714 2.000000
9.940355 -0.070844 3.416710 1.000000
-7.944956 24.214169 10.311226 0.000000
1.724039 24.997880 7.610922 2.000000
-15.724512 17.152721 9.077458 1.000000
8.746974 9.085521 0.210358 2.000000
-2.243076 20.670315 6.923461 0.000000
-24.824300 -3.383476 4.522128 2.000000
-24.044740 -2.580722 3.605357 1.000000
-15.225378 11.874709 9.125856 2.000000
23.822636 6.522161 1.950771 2.000000
19.801394 -1.954884 0.216555 2.000000
13.610810 -10.247356 1.745830 0.000000
5.424754 -9.788706 13.186819 1.000000
19.095854 -23.286814 5.937671 0.000000
17.088892 -23.857750 3.835614 0.000000
-22.594612 5.260835 2.858313 0.000000
-17.133789 -6.017152 12.673274 0.000000
-4.196335 -9.016390 14.179841 2.000000
2.479345 6.024901 3.818256 0.000000
-21.104545 -13.849841 0.138175 0.000000
23.818637 17.717259 8.076308 1.000000
0.067923 18.360343 4.424863 1.000000
-10.256977 7.070986 2.300704 1.000000
10.121893 9.872629 0.393241 0.000000
16.828025 20.184720 3.656289 2.000000
4.065931 7.339146 14.453820 0.000000
9.481564 -10.104173 9.712388 1.000000
-7.395975 -20.421017 10.959155 0.000000
-23.829414 18.565135 13.744785 1.000000
24.551164 12.853440 8.935160 1.000000
4.426340 -19.761139 5.404845 0.000000
5.526640 8.697616 14.780525 2.000000
24.492182 24.710664 14.796278 2.000000
17.383406 1.786885 0.445791 1.000000
-9.037097 19.195914 8.751962 1.000000
-16.188750 24.341101 7.603171 0.000000
-8.807787 -0.569142 6.696554 1.000000
-2.982082 -12.449195 12.640295 1.000000
2.975886 0.023005 5.732064 0.000000
23.996934 11.158473 2.163903 1.000000
-20.618336 14.953867 12.000900 0.000000
-1.512287 18.764647 4.536513 1.000000
-17.919749 -24.088330 1.801500 2.000000
-10.027403 -11.331283 3.352124 0.000000
-20.639638 -5.968809 10.454389 2.000000
-18.592744 -23.187675 4.844191 0.000000
-18.266573 -6.100503 14.994809 0.000000
12.054028 -4.819638 14.415333 1.000000
15.574023 -24.962138 4.145300 0.000000
-11.215256 -17.307190 6.920375 2.000000
0.348896 -17.869928 6.426512 1.000000
-7.005797 -23.789023 10.970789 1.000000
10.553588 -12.871565 14.379820 1.000000
-15.861004 1.562605 8.581618 2.000000
-0.102585 17.745537 3.023665 1.000000
-22.871109 14.845298 0.296254 0.000000
16.619587 -14.624176 10.878523 1.000000
7.709525 21.812112 13.506193 2.000000
-11.141236 -20.342425 14.050440 1.000000
3.414510 -12.184617 10.952926 2.000000
-24.170024 -22.253895 9.625656 0.000000
-7.437864 -12.702737 2.374006 2.000000
-21.305585 -7.012430 14.849745 1.000000
19.644414 0.143010 12.578614 1.000000
11.145152 -7.237784 12.975058 2.000000
-24.662119 -16.494460 13.874541 1.000000
-11.956448 -19.970236 13.508084 0.000000
-2.256816 3.827112 0.992286 1.000000
-24.551721 -4.467723 1.722889 1.000000
-22.561704 -8.601245 6.151794 2.000000
-2.820267 -9.449155 14.639241 1.000000
8.787739 3.594867 0.059288 2.000000
4.542392 21.536378 8.370468 1.000000
-23.526363 8.468176 4.662310 0.000000
24.184630 5.238045 1.776758 0.000000
9.553248 12.928460 0.913706 0.000000
-8.280944 -20.933781 11.695030 0.000000
-1.229299 -0.059822 9.594684 2.000000
-16.788392 6.546330 10.514952 1.000000
-20.789490 -23.717009 4.737486 0.000000
11.419594 -21.413591 8.719000 0.000000
21.988084 -16.127753 12.805109 0.000000
23.090716 24.094316 2.277424 1.000000
-13.946946 -7.278172 7.709370 2.000000
2.850751 -13.457377 12.568867 0.000000
18.521184 -16.525125 7.387422 1.000000
-9.711765 5.586273 10.338621 0.000000
1.916790 14.857703 3.709704 1.000000
-1.250738 15.941927 12.240995 1.000000
11.506338 -5.853431 12.223439 0.000000
-1.022574 -6.042386 4.030105 0.000000
2.261673 0.137906 4.948450 2.000000
11.184186 21.261650 0.432903 1.000000
20.317790 -17.530506 7.645824 2.000000
8.397922 -20.265196 5.739875 0.000000
11.978211 17.252864 7.395936 0.000000
2.389527 -13.444068 8.788123 0.000000
18.753756 -17.306117 14.911197 1.000000
19.162850 18.895464 9.993180 1.000000
-15.789631 21.570278 1.524405 0.000000
8.145530 17.370641 3.915504 1.000000
13.569261 1.519194 9.697005 0.000000
-22.642049 16.378143 8.853396 1.000000
2.520128 21.116510 8.898465 2.000000
24.649578 -1.851899 0.998118 1.000000
-8.868088 14.811778 8.658017 2.000000
21.994304 11.053274 12.306897 0.000000
24.008958 14.227948 2.996811 1.000000
15.531819 -0.984068 13.642849 2.000000
21.454347 -11.363160 11.485545 1.000000
-9.837414 23.700946 10.265897 0.000000
17.554266 -19.285570 8.554356 0.000000
20.505531 -8.319806 9.993631 0.000000
-20.524533 -24.252300 11.947384 0.000000
24.726497 7.579628 8.787850 1.000000
-11.943806 -6.001845 5.979478 2.000000
16.976169 -10.732347 4.556708 0.000000
8.026341 15.661620 11.319589 0.000000
-6.886268 14.820475 14.354274 1.000000
-11.611278 7.684738 7.284291 2.000000
-22.794921 17.793454 5.022055 0.000000
14.423127 22.102639 8.322083 0.000000
-21.672412 11.191801 10.256624 2.000000
24.044324 -17.363885 0.990389 0.000000
-24.377918 -20.683104 3.615636 0.000000
-5.656660 22.567845 8.092072 1.000000
-11.040781 -11.579104 1.430096 2.000000
-10.029499 -23.281738 2.858235 0.000000
16.742129 24.862616 10.791793 2.000000
-6.133537 12.795431 14.977187 0.000000
5.286058 24.569841 12.478762 2.000000
0.867161 3.094400 3.538196 2.000000
-8.999047 13.540611 1.447153 2.000000
-11.277243 -10.749511 11.903026 0.000000
15.991144 -4.238813 1.694926 1.000000
-17.608196 -24.386170 8.689273 0.000000
20.298109 16.760589 13.104752 0.000000
5.268447 -5.121853 3.158483 1.000000
-0.537830 0.206163 8.826337 1.000000
-4.318656 10.884878 5.541108 1.000000
-7.507544 1.194053 2.076010 0.000000
-13.709348 -23.003759 3.153449 1.000000
-17.959801 -1.594812 13.428648 2.000000
-23.249119 -20.802616 11.950308 0.000000
0.393491 19.757407 9.226392 2.000000
21.626643 1.926067 14.873745 2.000000
-13.588040 -24.306516 8.060327 0.000000
0.663153 19.847401 13.110157 2.000000
-9.573755 -22.537621 9.850447 2.000000
-7.617184 -18.111121 8.271031 0.000000
2.508047 -4.496568 6.874317 1.000000
11.034325 -20.521838 0.499453 0.000000
14.838836 0.862281 14.701246 1.000000
-2.392300 5.580201 11.830094 0.000000
-12.561191 13.647994 12.743112 0.000000
-4.692189 14.398566 6.504639 2.000000
1.692710 10.125389 3.039414 1.000000
-1.146569 -5.378193 5.148354 0.000000
-14.946117 -13.925950 10.652731 2.000000
6.504623 12.334720 9.375639 2.000000
17.208478 8.645470 1.685536 0.000000
-5.747595 -4.406925 1.486978 0.000000
18.685087 9.186092 3.148370 0.000000
24.397836 24.546841 1.965171 2.000000
1.463483 -21.779899 8.707156 1.000000
14.418900 -10.859487 1.467677 2.000000
19.710606 -12.491508 0.891128 0.000000
1.990438 10.278617 3.402251 1.000000
-21.683989 7.690441 5.897164 0.000000
21.387261 23.562741 6.185681 0.000000
9.085816 22.147411 10.679641 1.000000
0.524031 24.220044 13.947593 0.000000
-18.301397 6.078337 11.857495 1.000000
2.289754 -23.880456 14.747470 2.000000
-5.202136 18.882864 12.506751 1.000000
-10.619620 14.335565 10.542474 1.000000
1.405690 -19.378163 3.370600 0.000000
20.038789 1.672224 7.669335 0.000000
10.878964 24.929646 14.865181 2.000000
-17.551151 6.597048 5.791426 0.000000
-20.875280 6.184388 12.803641 2.000000
