19.145357 -19.617057 11.130554 0.000000
-11.033362 21.470913 2.518156 1.000000
8.581402 1.255516 6.588256 0.000000
14.443984 15.650679 4.641680 1.000000
-9.293745 -8.931459 11.009771 2.000000
22.483471 0.121363 2.885963 2.000000
-24.556185 0.046477 5.179921 0.000000
-23.184621 9.974370 2.546811 2.000000
9.630823 -18.558911 4.280408 1.000000
-13.885248 5.464671 9.221288 2.000000
-20.400717 17.935980 7.786289 2.000000
-24.079431 14.503596 10.354646 0.000000
-16.727720 -9.404797 10.766285 0.000000
-9.333702 4.931233 6.234849 2.000000
-22.022085 18.344613 13.397355 0.000000
-3.456496 -12.072564 8.371422 2.000000
5.361460 4.984852 0.096283 0.000000
-14.133849 21.299423 3.062081 1.000000
-11.176202 -10.763865 3.164922 0.000000
14.691735 5.056030 11.148972 0.000000
8.854825 1.043075 7.784099 1.000000
22.384212 17.773770 2.706207 1.000000
-10.317651 -0.744023 2.452165 0.000000
19.085393 14.267337 6.083206 2.000000
0.296953 15.219163 12.654484 2.000000
-5.332902 -5.264838 13.375074 1.000000
-15.061938 3.833695 12.060764 0.000000
-14.227852 -21.087434 3.387953 0.000000
-7.775035 7.930330 7.993435 2.000000
-2.660750 -10.525297 13.070173 0.000000
-16.055458 -22.785531 5.024115 0.000000
6.911394 12.077690 2.466547 2.000000
23.401793 -11.309317 11.673576 1.000000
21.451375 11.802665 6.197540 0.000000
-17.408192 -21.316577 8.065987 0.000000
5.938698 -7.722787 6.792381 2.000000
4.464705 19.531013 14.230521 1.000000
0.616209 2.315480 13.976288 0.000000
-15.601312 17.992611 1.540964 0.000000
-23.141162 3.227837 8.875798 0.000000
-14.034724 -15.482152 1.536501 2.000000
8.765343 0.602849 13.136845 0.000000
-15.474083 23.861978 2.561171 2.000000
-12.981648 19.628053 4.341740 2.000000
19.573359 12.299808 7.273634 2.000000
9.685295 -19.307966 5.801655 1.000000
13.634206 23.899626 3.549614 2.000000
-16.590657 -7.453812 10.189389 2.000000
-23.823339 11.072990 7.856745 2.000000
-10.182291 24.815620 10.165010 0.000000
-18.216386 22.909218 2.934215 0.000000
-5.390153 22.041804 10.250908 2.000000
-22.124218 -17.130312 3.225677 2.000000
-19.963779 12.227431 14.892698 2.000000
-1.589743 7.512120 11.267328 2.000000
14.513835 18.694236 1.852209 2.000000
-14.280556 -6.590778 1.264682 0.000000
9.070494 -24.163178 12.778415 1.000000
-2.299410 -0.231365 0.533747 1.000000
4.845277 -23.284790 3.185138 1.000000
-0.189601 22.025282 6.343835 2.000000
6.269374 15.359655 5.389616 2.000000
15.651493 14.446856 9.373774 2.000000
-15.389577 -9.111452 6.689239 2.000000
-3.233904 -16.722248 3.326339 2.000000
-7.096876 -9.110423 4.560729 2.000000
-21.137153 -3.171312 3.961895 2.000000
10.652831 6.379209 11.645802 0.000000
-10.409501 -22.796526 11.118195 1.000000
-0.576879 16.983615 0.055930 0.000000
3.709309 -18.809625 14.124301 0.000000
-3.931099 -8.722184 4.028418 0.000000
24.365840 -21.859502 4.496069 0.000000
20.076754 -23.662118 10.848784 0.000000
5.950051 -10.567645 13.794259 0.000000
-16.149548 23.500476 11.340052 0.000000
-23.041932 -23.950191 1.032540 1.000000
-8.555589 9.571397 10.064647 1.000000
-10.969889 24.131276 12.858592 1.000000
0.655515 -1.188139 2.658661 0.000000
6.815337 16.328127 1.744653 0.000000
18.632813 -16.938464 7.051793 0.000000
-11.248106 -5.075528 12.084018 0.000000
15.648351 10.071071 7.753957 0.000000
23.233834 13.845283 1.361165 0.000000
-0.147395 10.495969 14.034989 0.000000
22.020017 17.920467 7.344875 0.000000
-16.911808 -3.019468 11.413035 2.000000
-16.426680 -4.497039 11.854567 0.000000
-17.521230 -10.525106 14.553000 0.000000
-9.687716 0.893288 2.696906 1.000000
-1.526893 -3.975789 11.762285 0.000000
19.393246 -2.113921 3.936854 0.000000
22.849206 23.094814 1.169060 1.000000
0.185640 -19.187640 13.423426 1.000000
24.858750 -23.229218 8.986586 0.000000
-1.194208 -19.190598 6.959215 0.000000
-23.033440 -19.606501 6.812606 2.000000
16.216518 6.288016 14.735120 0.000000
-0.388283 19.586493 7.290003 0.000000
-9.673986 0.511395 5.500054 2.000000
12.499324 -13.655608 5.614737 0.000000
15.341814 -11.094047 8.289559 0.000000
17.692970 17.442972 6.434983 2.000000
-16.473898 -9.250580 6.381329 0.000000
-13.321374 24.422449 13.486719 1.000000
-11.245282 7.913887 4.453620 0.000000
0.563571 -20.656288 14.269556 2.000000
-24.911907 -21.681405 6.655905 1.000000
-8.879358 17.148637 3.577200 2.000000
21.108419 -16.113359 14.576863 1.000000
5.478713 20.603705 0.252301 0.000000
1.147484 21.353909 1.665566 2.000000
13.688947 17.146516 2.723140 0.000000
-7.037930 16.322173 2.416398 0.000000
3.771112 5.544956 13.404932 1.000000
-23.465847 -11.565675 11.540804 2.000000
-0.732250 22.946915 12.608668 2.000000
-7.750251 21.676390 0.834089 1.000000
-15.159258 12.051130 7.953512 2.000000
4.338187 -6.733746 11.731352 2.000000
1.480877 19.425385 7.800537 0.000000
10.213583 1.028873 10.506718 0.000000
2.191925 -4.149460 8.561422 1.000000
11.610344 16.408448 8.823454 0.000000
23.508518 0.521175 4.257809 1.000000
-0.506740 -17.438059 1.925304 2.000000
2.822085 -19.669936 14.689377 0.000000
-9.433787 -20.724179 0.297643 1.000000
1.354855 -11.164110 12.743649 1.000000
2.893402 24.958318 5.124025 1.000000
-1.711824 18.726826 4.876873 0.000000
23.078589 -5.739812 0.241516 1.000000
-21.440974 -20.876140 7.753960 1.000000
-3.449140 -9.136983 6.332542 1.000000
1.224387 16.742226 5.305622 2.000000
4.887989 -18.012939 7.646638 1.000000
-6.358396 21.708094 13.856594 0.000000
-7.165821 -3.540372 8.438764 1.000000
-15.764770 12.893790 8.815263 0.000000
-9.265483 -9.060417 10.444729 1.000000
6.288992 24.949615 4.025772 0.000000
-18.493827 -21.611457 0.408115 0.000000
-5.734011 -12.485045 0.862056 0.000000
-4.089334 16.626808 11.022357 0.000000
9.074131 -2.114458 8.336456 2.000000
22.156810 -2.534686 0.837107 0.000000
10.275209 -15.713244 0.312632 0.000000
-22.805016 -10.150430 9.795675 2.000000
-0.843234 15.682854 13.168471 1.000000
5.404216 13.257310 8.651688 1.000000
-8.688955 -9.425506 8.107374 1.000000
2.715992 23.035879 12.185524 0.000000
-23.596043 18.962983 11.156569 0.000000
4.555216 -18.161553 9.914667 1.000000
1.981960 2.432574 12.959118 2.000000
19.721070 7.391635 6.423897 0.000000
-14.214383 13.779979 6.321161 0.000000
16.948087 -19.447119 0.316235 2.000000
-16.341389 -4.274874 1.672878 2.000000
4.748462 9.424547 14.302092 0.000000
11.558934 -16.526335 10.324077 0.000000
-11.993698 5.068443 13.664053 2.000000
-17.456999 -22.381907 12.723482 1.000000
-12.915625 -16.754201 0.137801 0.000000
7.118372 6.900222 10.120230 0.000000
7.935760 17.477705 3.756693 1.000000
16.619484 -17.780371 11.635550 1.000000
20.854567 -17.856632 11.658997 1.000000
-7.890097 7.090301 10.784166 1.000000
-21.053489 22.867723 7.772584 1.000000
2.916065 10.471413 4.334645 0.000000
-11.350920 9.253186 10.299467 0.000000
1.648563 -5.070918 3.250127 0.000000
-17.524843 15.577441 1.544305 0.000000
-5.758120 6.118805 12.581601 0.000000
24.817186 9.893915 14.872877 2.000000
-15.806768 13.052068 14.269642 1.000000
13.674621 -20.666587 14.476682 2.000000
10.950618 -5.845726 11.176410 1.000000
12.041775 -17.357168 13.805834 0.000000
-23.602434 13.942588 11.869780 0.000000
-23.769263 9.682958 3.335494 1.000000
18.523310 -13.056025 3.921812 0.000000
-23.772818 5.821829 9.721475 0.000000
10.231124 -12.976827 4.146248 0.000000
-1.667438 -4.795077 14.303801 2.000000
21.398457 12.586845 3.187173 0.000000
8.255970 16.253925 11.216316 0.000000
-17.726361 1.522294 14.961830 1.000000
-5.426008 5.984255 13.892339 0.000000
23.750353 -4.375473 4.796845 0.000000
17.889321 20.000929 14.514462 0.000000
-24.632021 -9.779819 3.279380 2.000000
0.955190 20.286955 0.018488 0.000000
10.873582 8.089141 1.134977 1.000000
21.832543 -1.075439 6.100851 1.000000
-15.461713 16.069141 10.536586 0.000000
-13.890566 -5.304401 12.498060 0.000000
13.681598 22.779810 4.475208 0.000000
-13.096786 -3.553416 11.887368 0.000000
-15.021980 -15.472020 12.462554 0.000000
-3.841557 6.166312 0.078756 1.000000
-4.663458 -21.220324 4.643272 1.000000
4.240371 -22.933169 2.949034 2.000000
-24.281400 -8.611714 1.795479 2.000000
-7.399862 12.120156 3.346950 1.000000
-19.378262 1.352524 9.685061 2.000000
-8.023270 1.030901 13.219098 0.000000
10.192999 -16.119020 10.970357 0.000000
-1.079348 21.579396 14.711247 1.000000
17.935443 21.363298 13.670995 2.000000
-9.902437 -24.512585 14.953670 2.000000
1.336826 -17.551034 0.313934 0.000000
-24.852387 5.091256 12.387416 0.000000
3.982801 -4.445848 10.181115 0.000000
24.758307 4.489040 2.380895 0.000000
-18.229471 -21.614854 12.922786 1.000000
9.216784 18.404063 2.087262 2.000000
18.083383 -23.509292 7.195403 1.000000
0.732182 -11.416156 12.633540 2.000000
6.182785 -16.958677 2.079937 2.000000
7.823967 -23.796693 13.141892 0.000000
12.497331 -15.638041 12.340636 2.000000
-10.003056 3.927687 13.259154 2.000000
-5.865458 -8.230320 5.098556 2.000000
22.033955 16.089908 8.777115 1.000000
-11.964992 4.738057 6.521388 0.000000
-16.584332 15.014998 13.975844 1.000000
-14.756851 22.645153 1.628283 1.000000
-2.032985 8.546658 2.458329 0.000000
7.841617 -20.214825 1.708620 2.000000
-9.558131 17.561082 4.968557 1.000000
18.291645 -8.680147 2.063729 0.000000
-15.806615 -6.006539 11.488581 1.000000
21.401723 -10.360039 11.439567 1.000000
19.062860 6.956752 10.718243 1.000000
-0.918539 -15.948349 4.602723 0.000000
-4.068180 13.284259 9.082264 1.000000
-18.337630 -22.787298 3.074968 0.000000
7.624692 22.679788 7.836184 0.000000
7.013198 -1.392144 3.867936 1.000000
23.838637 -0.084401 14.250134 1.000000
7.507350 -17.527125 4.030183 0.000000
20.283020 -11.433810 9.431451 2.000000
12.654394 -17.417544 7.329946 1.000000
-10.404765 12.345545 10.468366 0.000000
-12.182738 13.117071 4.522117 0.000000
-0.651883 -8.408376 8.357345 1.000000
8.720002 -6.174350 11.021396 2.000000
9.591039 -19.089760 2.932671 0.000000
13.223142 3.223204 2.708373 2.000000
3.893709 7.359520 1.638046 2.000000
20.323583 -12.644571 8.198795 2.000000
23.599896 -14.117196 6.655228 2.000000
4.659587 -7.786442 8.827825 2.000000
-20.666362 14.738856 13.520717 0.000000
13.570880 23.787697 7.362528 1.000000
-24.589972 10.484855 8.017803 0.000000
7.535632 12.452344 10.914820 0.000000
-13.326179 19.293635 3.139788 1.000000
9.295614 23.372171 11.471827 1.000000
-21.144098 -6.517202 3.493728 0.000000
-2.286054 14.246496 0.741237 0.000000
21.883766 6.561589 14.666871 0.000000
14.630054 -9.071136 9.244681 1.000000
1.673511 -7.252396 5.774059 0.000000
0.627215 16.412990 10.724298 1.000000
22.674159 7.743498 10.574602 2.000000
-14.305139 -15.122240 1.517743 1.000000
22.795797 -3.162208 8.045727 0.000000
19.564273 -24.691484 11.332457 0.000000
4.131590 -11.917091 0.044763 2.000000
-16.526071 11.176320 8.524544 0.000000
-2.946357 -13.606218 3.265272 0.000000
10.976082 -10.642236 2.327438 2.000000
18.979728 17.562509 11.730257 0.000000
18.372953 -13.977457 11.627475 2.000000
13.577352 16.366417 2.655725 0.000000
-4.192103 -10.121475 10.467494 0.000000
19.644232 -17.489894 12.628735 2.000000
-16.347434 16.291779 3.847025 1.000000
-2.545653 18.730643 9.127306 2.000000
21.379515 11.217537 0.259948 2.000000
9.666496 5.125026 9.321026 1.000000
-6.147248 1.533468 5.646312 2.000000
-15.406754 -21.875922 12.856141 0.000000
-17.763996 -13.009638 12.067405 0.000000
19.562834 -22.287664 14.276074 2.000000
-10.693415 23.712733 9.123809 0.000000
-0.205217 -24.613839 5.154238 1.000000
-8.509576 -22.565156 0.870543 1.000000
4.076992 15.992388 0.150318 0.000000
-2.573171 -6.815532 9.811443 0.000000
17.402412 -3.070949 11.483604 2.000000
8.647612 20.946879 4.126569 0.000000
-23.440833 -13.927557 12.135935 0.000000
-10.706379 22.033918 6.875102 1.000000
15.439729 9.409521 11.492991 0.000000
-1.736526 2.454888 4.899626 0.000000
8.452374 -10.538340 7.381215 2.000000
-22.217691 22.747406 10.313757 1.000000
20.160532 16.474981 8.055656 0.000000
21.677304 16.796706 12.419455 2.000000
10.353976 14.732529 5.329035 1.000000
-20.416688 1.916549 0.591549 2.000000
10.457304 9.870721 14.658206 2.000000
24.442006 -19.101921 1.795801 2.000000
-23.482602 19.418922 14.681088 2.000000
-24.811890 5.812821 8.043641 2.000000
3.014751 6.842304 14.484766 0.000000
-24.038705 -16.515419 0.591423 0.000000
-20.954297 12.137184 9.136744 0.000000
-12.617044 -15.965923 11.891180 0.000000
9.590379 -22.186702 0.331239 0.000000
-13.406957 -24.562647 2.408012 1.000000
-16.691864 -5.464910 13.732511 2.000000
-6.808908 14.671596 8.986228 0.000000
6.516494 4.254492 13.295987 1.000000
17.662177 12.765833 13.484209 2.000000
-12.867112 -22.365926 9.505276 1.000000
20.070492 -5.106582 5.642235 0.000000
-8.021359 -16.092711 11.983373 2.000000
-8.601391 8.670882 14.924415 2.000000
24.279244 -3.933202 12.331565 2.000000
-2.495967 7.530402 12.218431 0.000000
-8.544124 -21.442459 6.673510 1.000000
-6.365160 5.469360 12.970902 2.000000
-4.663740 8.654498 12.928789 0.000000
-15.600776 -8.719997 4.971271 1.000000
17.397111 8.697941 10.761697 1.000000
20.930951 -20.402448 1.039402 0.000000
-19.836958 5.549694 4.958378 0.000000
-12.922542 8.188779 5.651759 0.000000
14.673095 23.556379 14.887037 0.000000
7.131533 -8.227843 9.735601 2.000000
18.831895 15.115524 1.189394 0.000000
-23.797933 -17.998582 12.684931 0.000000
-5.273382 -23.939131 9.501833 2.000000
2.229015 5.814244 13.755799 1.000000
-14.063459 -0.480852 13.045801 1.000000
-13.787055 10.046734 6.520518 2.000000
-10.957589 2.527269 13.114547 2.000000
16.948073 -9.329149 1.906328 2.000000
8.907624 -2.976782 6.786159 1.000000
-3.606865 10.198061 14.162793 0.000000
-12.790785 3.995317 0.595068 0.000000
-4.648461 2.847138 8.345446 2.000000
18.162451 -8.300809 2.155925 0.000000
-19.161211 24.300018 7.472477 2.000000
-23.517383 -13.723732 9.014057 1.000000
19.637295 24.938642 9.044740 2.000000
19.958927 -22.614387 4.485368 0.000000
21.543349 -6.381316 11.102396 0.000000
-23.108158 -14.349242 13.072479 0.000000
-10.559227 -19.572051 8.310901 2.000000
3.611987 7.108096 0.702181 1.000000
-0.656194 14.210908 7.727380 2.000000
-13.353186 1.894932 6.695882 1.000000
-4.605292 1.368887 4.409407 0.000000
11.151550 15.795035 9.928392 0.000000
-1.023231 22.217757 14.571825 0.000000
4.337672 4.324625 6.143012 1.000000
24.197721 19.196153 11.873749 2.000000
24.754812 -23.066808 3.147645 2.000000
4.868878 6.020846 12.031652 2.000000
-16.923464 -12.672237 6.267195 2.000000
-0.574599 -16.819754 1.928479 0.000000
-21.003667 -1.727328 0.124468 1.000000
-19.831838 -2.623305 6.441818 1.000000
20.838311 -11.942997 11.196396 2.000000
5.798446 10.972010 0.513773 0.000000
2.895647 -13.417232 14.799722 2.000000
-23.827624 6.780793 0.088284 1.000000
-10.898188 24.255480 5.562749 0.000000
-22.711750 -14.901980 13.157497 0.000000
14.202977 18.218540 9.421033 2.000000
-0.402434 11.534566 5.937541 0.000000
16.010384 -18.427166 5.494594 1.000000
5.078326 -14.716535 4.176065 1.000000
-16.501615 19.746082 1.266133 2.000000
11.536824 17.614497 11.444612 1.000000
20.277397 9.735391 3.380886 1.000000
-19.993734 5.556043 8.624170 0.000000
7.462949 -4.565801 12.573852 2.000000
18.243938 24.122123 12.308264 2.000000
-2.842285 -6.535330 2.516076 0.000000
12.583177 9.107358 4.889170 0.000000
1.768765 -11.871235 10.194508 2.000000
-15.331575 6.375375 14.437320 2.000000
-21.026994 -15.778594 5.325809 1.000000
22.687696 -19.717569 3.903089 0.000000
-19.458396 -13.199172 7.014885 0.000000
-18.538456 5.101623 6.300074 1.000000
-2.207953 8.741504 4.019123 2.000000
12.689276 10.784191 0.870462 2.000000
3.956635 -22.157770 12.779682 2.000000
17.016571 -12.806742 0.826283 0.000000
-11.647344 -13.032533 1.170714 1.000000
9.849377 23.929294 0.750255 0.000000
3.927837 1.356071 1.502380 0.000000
14.368627 22.260230 10.155236 1.000000
-14.328856 -13.631389 4.609496 1.000000
-3.427855 13.053101 2.164681 2.000000
-12.567370 -6.886734 11.203566 2.000000
5.811014 -4.934044 9.460473 0.000000
-2.579281 19.050738 6.212495 0.000000
-23.118886 20.866850 2.203547 0.000000
13.513845 6.020746 6.114384 1.000000
9.391573 -14.236560 13.165585 2.000000
-1.120333 -14.978339 0.975156 0.000000
10.862946 18.037444 9.853505 0.000000
-11.092899 7.652065 1.645569 1.000000
24.519720 1.982867 10.461061 0.000000
8.814564 20.184227 13.076392 2.000000
-23.554361 11.013769 9.958050 0.000000
2.488614 20.573868 5.810735 2.000000
5.199587 6.072893 5.670607 2.000000
1.006683 -5.890781 6.517318 2.000000
4.051206 15.581394 9.189572 0.000000
-11.019563 -2.160696 10.745214 2.000000
-6.721257 7.805163 0.811055 2.000000
17.721548 -21.688432 0.793361 0.000000
-9.459366 -21.691709 8.273462 2.000000
-19.764995 6.226967 11.951927 2.000000
9.712882 -21.158249 10.294128 0.000000
1.686008 10.233574 10.869990 0.000000
14.401826 -13.460362 14.235174 2.000000
-3.494938 11.757155 7.152368 0.000000
10.424476 21.494198 3.414896 0.000000
7.187992 10.753241 2.730579 0.000000
22.584639 4.275683 0.012519 1.000000
14.312300 -5.964035 6.717402 2.000000
-3.586088 14.640332 11.589592 0.000000
-19.111563 -0.386354 11.596436 2.000000
-24.078092 -23.932016 0.272289 2.000000
7.825321 8.110342 12.647976 0.000000
13.363905 5.357369 2.212513 2.000000
1.877252 -2.291440 14.414135 1.000000
11.960734 13.290766 6.209384 2.000000
6.446279 -9.951997 2.030022 2.000000
-21.014375 -6.451681 4.937108 0.000000
-21.184657 -1.184345 8.891847 2.000000
-10.705112 16.149322 1.215681 1.000000
23.867419 5.383954 7.209316 2.000000
-8.987477 -12.903247 3.084700 2.000000
23.439846 19.026053 14.432726 0.000000
7.773304 -3.435844 1.473426 2.000000
-24.665780 -19.040760 7.719861 2.000000
-3.276312 -2.615979 10.496116 0.000000
-1.672541 -18.882020 8.553271 0.000000
9.792596 -19.348322 14.995868 0.000000
-20.575116 14.362987 2.424642 2.000000
14.257595 19.569687 5.531055 2.000000
-9.403979 14.743662 3.795159 2.000000
-24.374819 3.868907 13.362192 0.000000
2.613176 -6.773035 0.732288 0.000000
9.535499 15.527774 14.784696 1.000000
14.863342 -7.324502 9.161464 1.000000
-3.060504 20.559489 5.080081 2.000000
13.860545 -4.791508 10.539788 0.000000
-10.702100 16.705262 5.509126 1.000000
-16.556708 17.356965 14.492103 0.000000
-9.193396 -0.799502 11.376623 1.000000
15.338463 10.213005 0.647511 0.000000
-5.040221 -24.528599 14.809076 0.000000
-2.687006 13.951162 3.321521 1.000000
10.378565 -4.202195 3.873258 0.000000
14.085639 -14.331780 4.152012 2.000000
23.897461 -23.368398 8.986465 2.000000
-6.430035 -6.543557 9.094388 0.000000
-22.813451 -8.339726 5.901535 2.000000
-5.701393 4.971436 9.856909 2.000000
-0.148341 -12.065996 12.398380 2.000000
10.493903 21.977324 0.975155 2.000000
24.874080 -3.305945 12.350602 0.000000
6.161488 -4.119805 8.259283 0.000000
12.372613 -9.268220 12.090481 1.000000
-22.468630 -2.249831 1.435827 2.000000
-18.794806 -21.819076 13.700279 1.000000
-4.059063 -10.136236 8.833748 0.000000
-6.808324 -6.409704 0.318610 0.000000
0.135440 -17.079054 7.392818 0.000000
3.851960 -20.029618 7.638726 0.000000
7.539493 24.570372 13.263980 0.000000
-12.225484 -23.834917 3.413129 1.000000
0.327577 -2.458731 12.075232 2.000000
1.455338 -21.252447 1.281910 0.000000
-12.932923 12.657254 0.468339 2.000000
23.469801 -8.895305 14.841746 2.000000
-7.826222 17.728357 14.472931 1.000000
-10.485155 -0.978917 8.086730 0.000000
10.279159 -11.733192 7.349247 0.000000
-18.742563 10.687930 10.699910 0.000000
-8.710489 19.121116 7.090453 1.000000
4.706320 -2.814556 8.907661 1.000000
22.126508 -3.620090 3.153738 2.000000
0.277491 7.052290 2.061046 2.000000
-3.086984 11.582442 2.256358 0.000000
-5.863171 -22.817402 3.818386 2.000000
-0.179613 11.071939 13.313827 1.000000
-10.814284 3.359646 13.009816 1.000000
21.821243 -9.257953 6.245679 0.000000
-12.308495 2.983738 4.944673 0.000000
14.750737 8.249431 3.627540 2.000000
2.855415 6.503196 0.968703 1.000000
14.070318 1.397745 6.714920 0.000000
4.511236 10.809064 6.356733 1.000000
3.530669 20.307071 14.906258 0.000000
-17.832931 9.267206 1.325744 2.000000
-2.801619 -1.244789 9.120212 0.000000
8.742662 -13.666290 14.405197 0.000000
-0.932463 -17.034086 10.808264 0.000000
-7.328882 -5.469517 6.858211 0.000000
16.557283 14.622008 14.861628 1.000000
-24.052653 -20.116731 12.041068 2.000000
12.564791 1.835590 3.913001 1.000000
-22.195635 23.679557 1.846366 2.000000
6.493627 -10.150389 11.809346 1.000000
16.389754 -4.788177 8.923688 0.000000
8.302449 20.137225 9.557812 0.000000
-18.410470 13.133952 0.080538 1.000000
23.354414 -13.842142 8.867855 0.000000
20.837156 -11.446593 1.239499 0.000000
-7.145121 -0.167270 10.281362 0.000000
-6.544796 3.199899 7.306239 1.000000
3.672720 -11.134511 10.298412 2.000000
-8.573781 18.197759 14.369124 2.000000
10.714932 -11.289649 5.591943 0.000000
1.015421 -20.956483 2.462494 2.000000
-3.547013 -14.869354 12.620518 0.000000
-24.666416 -12.286846 9.390756 2.000000
-21.716317 -13.067536 13.312282 1.000000
-12.250072 13.876315 0.109538 1.000000
-7.186962 12.353153 1.249865 0.000000
24.096076 4.245141 12.943975 1.000000
7.412947 -13.242784 11.728673 0.000000
4.370674 -4.681184 10.403103 2.000000
-8.742998 14.715670 2.094551 1.000000
0.874008 19.179612 14.952072 2.000000
-7.542295 -1.034627 4.377921 0.000000
-24.677002 -10.438907 12.348536 2.000000
-16.986713 16.727560 10.782550 2.000000
-7.884844 1.552158 5.221559 1.000000
-11.083231 -20.358023 9.468024 2.000000
-13.917424 0.712462 13.645657 2.000000
-9.335716 22.385244 12.189706 1.000000
20.426668 22.046221 7.395833 0.000000
-14.120678 16.361051 6.728711 1.000000
4.106770 -11.418978 8.978896 0.000000
-24.341200 -8.116378 0.125966 0.000000
5.389282 8.356708 8.922933 0.000000
6.329253 -9.066046 0.211338 0.000000
1.264541 -0.695203 8.449085 1.000000
-19.250345 23.549706 5.523085 2.000000
5.412161 -9.896747 7.948004 2.000000
15.964394 -12.153682 10.121204 0.000000
-24.970574 -22.038142 12.010256 1.000000
20.313672 23.763255 4.483961 0.000000
24.168336 -7.052711 0.983888 1.000000
0.036755 -4.359355 0.165367 2.000000
-5.988144 -1.787064 2.301861 0.000000
-14.465788 -6.401522 3.564109 1.000000
21.149376 15.573358 12.921507 0.000000
-6.278702 10.706701 4.578411 2.000000
-8.659683 8.025460 9.404322 0.000000
3.414336 -7.440422 6.858349 2.000000
-11.518776 1.575440 6.513164 2.000000
5.661249 5.709178 11.856876 0.000000
4.439446 19.721858 0.707886 1.000000
-19.202594 -9.553106 13.032696 1.000000
-16.902914 -16.506883 5.411183 2.000000
19.975065 -20.465492 10.543623 1.000000
16.261431 20.696695 5.650260 0.000000
16.568217 19.953323 11.978359 2.000000
18.679586 -12.535913 2.651804 2.000000
-16.904068 10.567897 9.255567 2.000000
-7.785056 3.850267 8.511752 1.000000
-20.455135 6.064404 7.022442 2.000000
21.150255 21.773373 13.624955 0.000000
13.529717 -11.623564 9.343744 2.000000
4.069564 -18.812207 13.061433 2.000000
0.599624 -16.199162 0.374313 0.000000
18.905338 6.114450 3.063844 0.000000
22.088876 -6.776223 14.609867 1.000000
12.785208 -10.483275 3.453172 2.000000
0.467776 -17.886200 8.098991 1.000000
17.708876 -4.409895 4.204556 2.000000
20.325730 17.410278 3.716691 0.000000
-20.074981 -17.137082 8.518328 0.000000
-24.463635 9.807765 9.289061 0.000000
-12.300718 -24.040954 10.685380 1.000000
-9.866999 22.179896 3.614088 1.000000
-21.119094 12.032818 12.318944 1.000000
17.840480 2.774867 6.645554 0.000000
13.908127 -5.785749 9.566163 1.000000
20.767840 -1.455349 11.962963 0.000000
2.566856 12.617698 5.728580 2.000000
-12.932321 -3.243595 6.582654 2.000000
11.196297 9.910157 3.133809 0.000000
-13.821770 -15.880591 4.834051 0.000000
19.815064 17.139476 5.032872 0.000000
-0.312680 3.554974 1.413956 2.000000
14.876884 17.475346 11.504701 2.000000
-19.589947 13.302900 14.919886 0.000000
12.946845 -13.183196 9.307158 2.000000
19.329117 -6.390050 9.366458 2.000000
-12.418785 -16.877761 14.703985 0.000000
9.426908 -8.843636 3.533755 2.000000
11.586374 19.237038 8.840428 1.000000
-21.314482 20.286919 7.742157 0.000000
-11.820467 -19.266758 3.930247 2.000000
-23.855777 19.940923 11.691052 0.000000
-18.762210 9.731322 10.695940 1.000000
-18.220178 16.840812 5.185442 2.000000
-22.723903 16.073062 6.056679 0.000000
0.360730 23.553697 7.836201 1.000000
1.709229 -6.637271 1.387329 2.000000
23.806117 12.607974 2.591558 0.000000
22.413462 8.404576 6.894298 0.000000
23.657968 -9.399342 11.236071 2.000000
5.988777 19.267418 2.277305 2.000000
-8.960970 -6.172863 7.442536 0.000000
-4.958745 17.321429 7.289819 2.000000
4.042608 24.820015 3.799545 0.000000
-4.920096 9.814194 13.229763 1.000000
-2.600182 -6.059410 4.151655 0.000000
21.607770 22.214101 12.084104 2.000000
-24.273963 9.442329 1.074822 0.000000
13.598751 18.577447 10.751041 0.000000
-24.825417 13.557631 10.627969 1.000000
11.243077 -11.162798 5.469387 1.000000
-21.130632 21.121642 11.437792 2.000000
-15.588496 -18.425341 13.241243 0.000000
-11.916207 -10.034618 3.317617 2.000000
21.868835 -13.922103 0.298180 2.000000
20.683257 -12.071008 0.759463 0.000000
7.490134 -22.857708 13.519196 1.000000
-6.456686 6.282259 4.403952 1.000000
14.096434 4.524068 8.113176 1.000000
3.590913 -16.684178 12.826892 0.000000
-9.762916 -13.075991 14.380152 1.000000
4.160903 -5.764740 14.745391 2.000000
6.879334 2.878999 8.550000 2.000000
-21.319552 -9.177108 11.275829 2.000000
4.322545 15.136388 13.816173 1.000000
-12.574389 -7.273386 2.345873 2.000000
12.236464 -4.444569 10.505418 2.000000
3.627204 -23.253574 4.585527 0.000000
-19.374387 -24.343169 8.189584 2.000000
1.787588 -21.656829 8.425502 1.000000
-0.092911 4.543696 4.007404 0.000000
8.362344 -22.007949 8.881644 1.000000
12.450618 -23.047186 13.314295 0.000000
-19.447494 24.905287 5.018563 2.000000
6.973439 22.853079 0.940835 0.000000
-18.698083 20.168795 13.695034 1.000000
23.936296 -7.958642 8.460187 1.000000
21.953262 -16.633891 4.102707 2.000000
-11.528838 18.742455 12.086725 2.000000
-12.889205 3.185339 10.052076 1.000000
9.049367 19.109892 13.048892 2.000000
1.735617 0.215940 1.898646 1.000000
-7.069819 -9.725129 9.998955 0.000000
10.988568 10.538327 12.229052 1.000000
7.005294 1.617609 8.906765 0.000000
11.523820 15.789120 2.438890 2.000000
-3.797168 -11.318717 5.548036 2.000000
19.208371 -5.142395 11.277925 2.000000
12.598885 -7.833781 11.061982 0.000000
-18.434315 18.089480 14.566043 0.000000
24.679024 12.285732 13.970871 1.000000
5.225277 -17.942889 5.638477 2.000000
6.479295 16.787309 13.485190 0.000000
16.524172 -23.947196 11.834789 0.000000
-8.604152 -11.205218 7.474285 1.000000
19.027386 -22.301981 3.722432 0.000000
0.919096 21.542562 5.067452 1.000000
11.302713 -19.450994 13.864855 0.000000
0.169315 -8.183515 5.604954 2.000000
7.841706 0.144455 1.611612 1.000000
7.102509 -9.738899 8.003998 2.000000
-5.594542 5.946025 5.589673 1.000000
7.519673 -3.777467 1.015733 0.000000
10.111494 23.885778 6.622935 1.000000
-16.003059 5.635557 9.372116 1.000000
13.681612 -1.591212 4.443629 2.000000
23.351529 -2.258479 11.283118 1.000000
13.071849 21.723423 14.287207 2.000000
-0.079154 5.478538 2.688945 1.000000
-3.970166 16.221536 14.947223 1.000000
15.689192 -11.833508 12.991777 0.000000
12.463753 21.972933 13.893194 1.000000
-23.189003 -20.994854 2.858733 2.000000
-23.790544 -6.046130 7.967930 0.000000
-12.385733 -15.643071 11.636978 0.000000
-14.806521 -17.025612 5.675367 0.000000
-24.511580 -16.341533 0.894757 1.000000
9.883894 13.352128 5.416078 1.000000
21.381533 23.606615 12.948904 1.000000
15.590615 2.674814 1.490570 2.000000
-14.164313 18.942688 5.993102 0.000000
17.374024 22.107218 0.691051 0.000000
17.202991 -14.707816 3.941696 0.000000
-15.498017 12.239120 5.356142 0.000000
-23.901303 17.668066 2.520858 2.000000
-1.640913 -16.567906 7.544763 2.000000
13.538581 -7.277156 9.365885 2.000000
-20.447921 -0.399862 7.262799 2.000000
8.856798 15.697426 9.685424 1.000000
-1.228236 12.065876 10.714252 1.000000
4.137950 -4.503101 13.329729 0.000000
17.952251 7.385297 2.197536 2.000000
17.960008 -7.676963 4.559262 0.000000
8.518961 4.626949 14.778470 2.000000
17.354955 22.013365 13.617218 2.000000
-15.948806 -13.941748 11.394930 1.000000
23.901352 9.730656 2.684153 0.000000
-20.756689 7.835545 6.287184 1.000000
-17.216997 6.077945 11.219088 2.000000
20.028797 -8.841452 4.369257 1.000000
8.268811 5.894922 7.634441 0.000000
-7.780415 -22.661604 0.384110 1.000000
-6.792414 22.248825 12.158280 0.000000
-11.192228 -17.795453 8.847764 2.000000
-1.091630 -24.491420 5.700488 0.000000
5.179674 0.069250 1.582232 2.000000
-11.167700 -11.276801 6.180579 2.000000
-5.971510 9.571744 7.884418 2.000000
-3.401316 -18.107200 5.815848 2.000000
4.073561 -1.840442 0.307606 0.000000
-9.949347 -17.405745 1.248081 1.000000
22.905430 1.681407 10.791652 1.000000
-0.398577 7.568357 14.180860 1.000000
14.066059 -2.440728 13.084954 1.000000
-24.593158 -12.698756 8.020546 1.000000
2.330691 -1.428167 2.427406 0.000000
-17.202692 4.893033 5.207108 2.000000
17.186051 -16.716638 2.692620 1.000000
-4.302413 -20.728162 4.162180 1.000000
-12.713323 -6.399277 11.144946 1.000000
16.098104 6.013608 9.105473 2.000000
-11.937576 11.545275 6.300626 1.000000
5.965713 -4.432107 7.634372 0.000000
4.903843 -6.177004 5.466484 2.000000
16.148191 20.681508 13.228032 0.000000
8.100144 -8.071825 13.392377 2.000000
20.126960 -21.942644 10.349053 0.000000
-3.771124 3.361870 0.430195 0.000000
-11.715887 -8.583468 13.476672 1.000000
6.827023 2.191561 5.186696 0.000000
-22.378714 7.024348 9.656114 2.000000
-16.318190 -10.581461 3.230967 2.000000
24.797813 7.187268 9.826282 1.000000
18.081898 7.634558 4.307520 2.000000
22.638124 5.069476 4.025825 0.000000
-9.234483 5.378175 14.076136 2.000000
20.361869 -19.089246 5.777917 0.000000
24.792057 17.852990 11.384966 0.000000
22.022947 -4.414900 2.949131 1.000000
-15.469005 -10.940359 12.183951 2.000000
18.426641 23.999539 0.437936 0.000000
-24.638580 14.284813 13.541235 0.000000
7.888372 -18.473852 8.311377 0.000000
12.142111 -24.339379 1.336044 1.000000
17.017134 5.903455 8.807831 2.000000
-21.015444 6.084372 2.298186 0.000000
18.354482 9.171686 0.676217 0.000000
-1.286332 8.589767 13.925618 2.000000
-11.976082 4.869855 4.462069 1.000000
-16.300190 -0.125053 13.004347 2.000000
9.345339 -16.803415 12.179614 2.000000
-17.602844 11.178913 9.037714 0.000000
3.390361 15.122327 5.076524 2.000000
11.373681 15.200651 4.546281 2.000000
-10.197355 3.921993 1.496827 2.000000
-23.078781 15.392918 4.166430 0.000000
-2.647474 1.576238 6.041257 0.000000
11.096499 -2.620161 13.145763 0.000000
8.843264 -17.281792 10.467507 1.000000
-15.183665 16.240379 5.506234 0.000000
-14.131793 11.370311 11.229618 2.000000
-21.174855 4.440620 0.827359 0.000000
0.145852 19.788872 4.188754 2.000000
-12.884961 3.983627 11.192654 0.000000
12.140392 -22.717612 2.923480 2.000000
-11.970152 -16.625250 2.708095 1.000000
-9.674251 -8.195775 5.553583 0.000000
-17.332132 11.106875 7.231487 2.000000
-21.683093 -21.742855 6.565361 0.000000
0.064610 20.338746 5.731571 0.000000
12.537802 1.745867 13.074567 1.000000
-18.502223 17.558826 10.065742 0.000000
-6.899133 -11.587216 0.368721 0.000000
-14.937318 15.189550 7.548714 2.000000
9.299912 18.635125 10.959752 2.000000
16.943303 12.682931 7.377633 0.000000
-14.517235 9.301393 2.697166 2.000000
-14.361023 13.609809 7.155641 1.000000
-0.334915 -1.855108 7.477462 2.000000
-19.772392 -2.185797 2.011949 2.000000
-23.015400 15.539800 12.240860 2.000000
-2.291994 12.306139 0.243344 0.000000
-14.949102 0.123342 10.742576 0.000000
6.269222 -18.320979 2.880415 1.000000
-22.860441 -10.093733 4.029399 1.000000
24.497558 -20.178432 13.399687 0.000000
16.437677 -17.312525 7.172916 0.000000
-16.707861 -18.694201 10.161388 0.000000
-18.667212 7.625363 2.195244 0.000000
-17.133378 -9.263978 10.849683 2.000000
-20.168509 -14.062070 14.412984 1.000000
10.524514 7.379462 4.698021 1.000000
22.215096 -4.444651 10.722299 0.000000
-16.582840 -0.761498 13.486219 1.000000
-2.897933 -24.877451 1.219209 0.000000
-4.061083 -13.179892 10.886778 2.000000
4.659141 22.855275 1.548981 0.000000
-9.975874 -17.314966 2.224660 1.000000
-4.192015 16.231635 11.251611 0.000000
19.023106 -24.890280 4.515835 2.000000
7.002330 -5.787362 1.485934 0.000000
6.555953 2.664655 7.050956 1.000000
24.491240 -16.268795 10.790193 0.000000
7.825780 -19.458911 12.197706 0.000000
19.948648 8.012542 11.777962 2.000000
24.758021 -1.484664 5.253467 2.000000
10.240448 4.774950 7.414847 1.000000
2.348686 22.510925 5.077066 0.000000
14.240179 -22.218034 7.277165 0.000000
-21.412748 15.524088 1.750339 2.000000
-15.951017 14.753296 13.354198 0.000000
-4.675980 3.883668 14.081215 2.000000
-22.542217 -18.877930 4.028114 0.000000
24.703442 -12.735192 11.074540 1.000000
-5.194002 3.033398 11.731677 2.000000
12.035158 23.506701 8.393239 1.000000
-17.192154 -22.304095 11.928845 0.000000
0.967637 -0.918909 2.900434 0.000000
-8.415902 10.099083 11.090965 2.000000
-1.281571 -23.437685 5.120836 1.000000
0.929238 20.154318 11.096419 2.000000
19.837173 2.168464 5.027238 1.000000
-13.545516 -17.622373 5.547224 1.000000
13.635440 18.699013 7.740771 1.000000
23.009975 -2.119450 2.084942 2.000000
15.310081 22.028463 7.654910 0.000000
13.864403 3.871679 4.581933 0.000000
-21.900816 1.951695 12.057012 2.000000
3.909958 -13.363571 12.443721 0.000000
-19.569793 -22.428559 9.270294 2.000000
-0.670317 3.423333 8.946785 1.000000
-19.652149 22.857237 5.757996 0.000000
22.851240 22.437406 5.607579 0.000000
7.382552 -13.007328 8.231577 1.000000
6.134177 -11.355270 11.968568 0.000000
10.239927 -11.302935 13.215908 0.000000
-5.283971 11.336800 8.803726 0.000000
4.934645 -15.507106 9.089175 2.000000
-4.723399 -10.673196 5.291950 2.000000
-0.800451 -13.174038 10.568272 1.000000
-3.156270 -18.881209 12.372912 1.000000
-5.552176 -12.535198 0.773654 2.000000
23.346912 -18.928784 11.774705 0.000000
8.876985 8.678440 6.867516 1.000000
17.162149 -22.476049 8.534520 0.000000
11.352103 4.443278 5.433704 0.000000
-14.879764 -17.887147 5.676620 2.000000
7.568114 -15.003738 13.415062 2.000000
13.679911 -22.638756 0.504977 2.000000
10.687909 -3.228157 11.174886 2.000000
-18.162219 -21.800141 5.745864 0.000000
8.798714 -0.068738 2.323722 2.000000
20.016383 17.660058 9.291379 1.000000
-12.284618 8.246541 7.775236 0.000000
-2.396630 21.006504 5.325803 0.000000
-5.929835 -10.208637 2.951140 2.000000
-8.827763 6.648310 2.680645 2.000000
-13.441880 13.769978 2.008686 0.000000
7.232071 18.995401 11.014618 0.000000
14.041698 24.325689 9.668098 0.000000
-19.135196 -13.333658 9.020605 2.000000
12.802264 17.781155 8.500058 1.000000
-19.569575 23.592640 14.582558 2.000000
4.162145 4.489595 12.026157 1.000000
-21.015262 18.186503 10.565369 2.000000
5.409959 -5.414599 13.689219 0.000000
1.873942 -21.441471 0.037451 0.000000
-12.729874 -0.483310 7.758936 0.000000
-13.835555 -18.121433 2.885420 1.000000
-13.006602 -17.331172 3.286151 2.000000
-4.780335 10.604831 3.883087 1.000000
13.216612 2.339187 10.377536 2.000000
8.467028 12.274020 12.712053 2.000000
-16.928703 11.079939 6.590480 0.000000
-10.228160 -6.073327 14.693276 1.000000
-17.107898 1.593710 3.583692 1.000000
-9.936872 13.124056 12.544904 0.000000
-13.592277 -18.298125 3.478752 1.000000
-13.970504 19.631930 10.384493 2.000000
-5.342396 -16.709648 0.008363 0.000000
-10.492361 -8.345708 13.084640 1.000000
-8.831141 1.224732 1.077172 2.000000
-18.557555 -4.369743 6.076869 1.000000
22.194274 -22.626113 9.739389 0.000000
-18.770741 -14.089562 11.409711 2.000000
-19.950681 -23.600010 3.937992 0.000000
-17.022711 -7.605608 10.162266 1.000000
-0.297019 -23.514399 12.108086 0.000000
17.348992 -18.111924 6.360156 0.000000
13.687616 -19.246462 0.661641 2.000000
-11.894490 1.408475 12.922649 1.000000
12.623169 -4.687343 1.208950 1.000000
-14.876458 -16.840475 10.177211 0.000000
1.005397 14.520562 11.703961 0.000000
16.069393 23.848635 8.907956 2.000000
-12.183180 -6.727364 7.445095 0.000000
19.251229 5.081574 0.991099 2.000000
5.712370 -9.906332 10.438431 0.000000
13.878340 -23.409229 3.426549 1.000000
11.695978 20.535600 11.866598 1.000000
-4.958120 13.989114 7.195910 0.000000
-18.620354 13.792091 4.294891 1.000000
-15.523620 21.092480 13.315520 1.000000
1.894346 -12.694455 3.867385 1.000000
-6.496375 -21.807609 5.104928 0.000000
0.093342 -19.490520 2.589138 2.000000
-4.292588 13.379432 14.904033 0.000000
12.215614 -1.936206 13.433036 0.000000
-16.174954 16.661613 4.800213 2.000000
-6.952766 8.383315 0.279614 2.000000
-23.873624 24.037726 13.163342 1.000000
1.005373 7.834492 14.651401 2.000000
1.841194 15.973432 0.358548 0.000000
22.524015 4.125724 2.651239 0.000000
10.866993 19.844517 1.463054 1.000000
-15.407539 -17.840723 2.067880 0.000000
10.973378 22.183907 9.687893 1.000000
-19.792529 -3.841249 2.255968 2.000000
0.813085 -23.197188 10.771258 1.000000
10.748364 -20.692722 11.540460 2.000000
-16.251486 22.401566 13.772242 2.000000
-13.599127 -4.836336 7.779834 0.000000
-10.637144 15.301193 8.312793 1.000000
-0.535264 1.391644 1.559873 2.000000
-21.223789 22.895638 9.250947 2.000000
-16.622635 17.433158 8.906661 0.000000
-17.185947 4.200071 2.435959 1.000000
1.438226 12.992498 2.627452 1.000000
23.357365 6.724150 3.117248 0.000000
-16.973037 0.934056 13.182374 2.000000
10.015626 0.389615 2.960814 2.000000
-0.931307 23.912085 9.980745 2.000000
19.964524 -2.585920 13.310033 1.000000
-4.726282 3.047517 11.433595 1.000000
-14.229955 -9.650014 3.477385 1.000000
-15.561408 -22.937688 8.582236 0.000000
-3.900411 -0.808473 11.863353 2.000000
15.247212 -21.376585 9.214467 1.000000
-5.797424 -13.239566 11.409875 1.000000
-17.573033 -10.504975 0.229052 2.000000
10.598352 -23.870036 9.424555 1.000000
-0.389563 -18.477804 6.798743 0.000000
-23.025980 0.023708 1.126214 0.000000
19.844173 -24.971690 0.414070 0.000000
-6.859586 -5.448636 11.626749 1.000000
-0.300253 -20.656635 4.853530 1.000000
22.290129 -11.993131 8.502645 0.000000
-6.415794 -13.339839 14.939205 0.000000
-7.488355 -3.549721 6.069300 2.000000
21.107976 -12.886986 11.448364 1.000000
-12.846178 22.307333 0.787864 0.000000
20.912058 8.142745 3.621634 2.000000
-0.904102 -1.930588 2.263038 1.000000
-23.561082 -10.183042 3.530792 2.000000
23.137318 7.191166 13.763196 0.000000
4.240717 -5.559326 8.546425 0.000000
-3.824014 -13.469208 12.391403 1.000000
20.082125 0.675037 2.178073 0.000000
4.451826 -6.831143 8.877531 0.000000
-8.940325 13.818581 14.751139 2.000000
-11.557903 12.572635 2.415592 1.000000
4.267368 -6.074495 3.973726 1.000000
-24.507126 -24.981686 11.340210 0.000000
-6.026689 -19.634381 0.707834 0.000000
-3.290329 9.900480 1.332852 1.000000
-20.180297 7.007258 8.074900 1.000000
4.821683 0.429942 2.571053 0.000000
8.421347 -19.203399 8.995513 0.000000
-0.567836 2.001535 6.486020 0.000000
9.824008 -6.182313 14.569476 0.000000
-7.897941 18.937652 2.307976 0.000000
11.002348 11.773244 14.550587 1.000000
11.800035 16.892950 8.126963 0.000000
-18.602443 1.220586 0.986887 1.000000
12.485734 10.204058 13.942172 1.000000
-7.998273 4.406534 6.737287 0.000000
12.240476 19.139579 7.815982 0.000000
5.782937 -7.239712 13.000585 2.000000
0.215473 9.344859 11.112144 0.000000
14.302549 19.752942 4.505666 1.000000
-22.369747 0.291507 3.667508 0.000000
20.237260 -3.641174 2.389888 0.000000
-2.647467 9.912842 2.556625 2.000000
-19.537860 -5.563336 6.423849 0.000000
13.983943 -14.762382 2.252109 0.000000
14.610971 -8.610616 13.435088 2.000000
22.158147 -6.036161 4.444019 0.000000
-14.546323 -16.204297 11.933790 2.000000
17.648440 -20.280201 9.119464 1.000000
6.615416 -0.427043 2.359417 1.000000
-22.792120 -17.525805 4.857164 1.000000
6.621587 -6.358335 11.292219 0.000000
6.312461 1.499109 3.098194 0.000000
14.116053 -9.450716 0.689915 2.000000
-23.753180 -9.953075 11.382433 1.000000
13.386141 -7.159938 10.227403 2.000000
3.938687 12.706640 14.286929 2.000000
19.968860 12.565049 2.965989 2.000000
-10.401343 22.522675 3.205116 1.000000
-11.597412 -20.090595 8.687669 2.000000
-14.466304 -23.398091 3.001521 2.000000
-19.744682 -11.438581 8.350067 1.000000
9.233774 -13.720976 5.981460 0.000000
18.472742 12.732084 3.564292 0.000000
-13.652028 20.342211 10.962251 1.000000
-0.206487 20.053771 14.956924 1.000000
3.808926 -15.869861 14.652416 0.000000
7.758384 10.424730 10.677843 1.000000
3.104743 -0.760065 9.703420 0.000000
24.097209 -14.405454 13.864530 2.000000
23.159615 -5.796861 9.049024 0.000000
1.065139 -1.069776 6.588175 2.000000
-24.163253 -22.177843 14.027729 0.000000
8.379698 15.141303 0.323892 2.000000
23.056305 -2.225269 11.749908 1.000000
8.161918 6.073963 3.541977 2.000000
-12.703328 14.042283 9.002501 1.000000
24.697399 16.239761 8.229566 2.000000
-18.720828 24.933508 6.299214 2.000000
-22.091909 1.608113 11.746656 2.000000
17.175083 22.306188 3.017004 1.000000
16.291246 5.019884 8.093207 0.000000
20.816407 -10.405405 14.388070 1.000000
-11.216778 24.150345 14.576703 2.000000
-11.747301 -14.697790 13.916477 0.000000
14.058961 -16.080234 11.908806 1.000000
17.255683 -13.773947 1.867505 0.000000
16.825815 13.025162 11.518682 1.000000
13.082862 -0.833552 8.895441 1.000000
-23.487856 14.438073 7.181732 1.000000
-6.800777 -11.412043 7.739767 1.000000
-1.455030 -11.056010 5.344147 0.000000
19.998073 -6.425054 12.179907 0.000000
-17.778206 -17.763735 1.853097 0.000000
18.000960 -3.851857 8.522187 0.000000
-19.434383 14.571466 11.006405 1.000000
9.691086 14.847839 0.686790 1.000000
-24.137947 6.979395 13.746775 1.000000
-3.206662 24.545429 8.553009 1.000000
24.012773 -8.445907 8.361304 1.000000
-22.783259 -15.780363 1.379814 0.000000
-23.810161 -0.043477 12.560057 2.000000
16.493972 -23.414473 1.266458 0.000000
-6.955579 -1.507085 2.606937 0.000000
-12.715072 8.494280 12.118277 0.000000
-10.361926 20.996107 9.775876 0.000000
15.437649 5.870440 9.281640 1.000000
-2.824245 -21.304881 6.244767 0.000000
-3.474015 -17.186560 9.425764 1.000000
-5.437724 -4.766316 0.957981 0.000000
-5.059571 21.814400 5.590780 1.000000
6.434640 -12.930522 11.333694 2.000000
-4.451799 -0.294908 0.391297 1.000000
5.269869 13.617732 11.823255 2.000000
18.757953 1.851128 6.379285 1.000000
12.527233 -5.256381 1.279836 0.000000
15.811161 14.660203 3.448204 1.000000
-2.580161 17.230123 7.121540 2.000000
10.644311 3.071691 13.688562 1.000000
-18.183985 -5.517458 7.970410 1.000000
3.322494 -3.193485 2.627663 2.000000
-20.696159 -18.755516 9.679012 0.000000
-9.970773 -15.602355 2.352354 1.000000
23.357191 0.407330 8.127174 2.000000
-0.343158 23.190643 0.626032 0.000000
-2.863132 17.736459 5.360637 1.000000
-18.444590 -14.669000 12.397212 2.000000
2.052314 8.758378 13.991545 0.000000
4.088603 -20.843096 14.157180 2.000000
20.165870 22.306688 9.661913 0.000000
-24.231069 -24.550504 2.360686 0.000000
-3.307136 -5.062093 4.583494 1.000000
14.982897 -6.233699 4.828619 1.000000
9.190776 13.725197 3.229351 0.000000
-8.519149 -14.588276 8.025365 1.000000
18.167023 13.554936 8.046960 0.000000
12.003274 13.864667 12.852441 0.000000
-0.821621 -14.172053 9.897163 1.000000
3.707789 4.724521 5.642735 2.000000
11.785568 -18.771196 7.011244 0.000000
1.958118 16.591967 8.380401 1.000000
-6.590920 9.806615 0.795598 0.000000
-23.066291 8.681641 10.028518 2.000000
-23.273578 4.972230 5.985368 1.000000
-17.337372 24.471314 4.691821 1.000000
24.629644 -24.875695 14.387083 0.000000
-12.561352 2.730407 3.510179 2.000000
7.818836 -20.251270 0.515323 2.000000
18.032425 21.744817 14.583779 0.000000
0.774975 -18.394058 0.416721 2.000000
21.394994 -19.302450 6.893093 0.000000
-8.577037 20.373611 11.398745 0.000000
1.683727 -5.586365 9.729331 2.000000
-22.151267 -21.742594 8.280395 2.000000
-24.470202 -19.111792 7.513463 2.000000
-9.249679 -2.092658 8.748453 1.000000
21.827696 -7.225878 5.006457 0.000000
0.786296 -9.494228 2.015470 1.000000
-6.289581 12.457877 10.207159 0.000000
18.833561 -4.685175 3.756986 0.000000
5.811996 13.546864 11.166303 0.000000
-1.722804 -17.860993 7.798771 1.000000
-17.644913 16.459064 7.079275 0.000000
12.271358 -15.312667 5.429880 0.000000
-12.274425 -24.839502 8.522291 0.000000
-23.050656 17.257145 4.723392 2.000000
8.853273 1.311113 0.019051 2.000000
16.939301 3.880399 4.802008 0.000000
15.451772 -10.352409 12.616825 0.000000
-10.735420 0.546452 6.629468 1.000000
-20.433879 11.882273 13.949606 1.000000
-18.452934 -13.381094 13.075510 0.000000
-10.634534 -4.434988 0.471430 0.000000
7.441920 6.763553 11.138484 1.000000
9.467801 -18.378462 0.848395 2.000000
-22.277280 -15.561719 6.049890 1.000000
-1.960252 -12.179893 11.319117 1.000000
21.940231 5.428053 14.876044 0.000000
21.679342 10.542851 10.273717 2.000000
