17.155571 -7.535021 5.281416 0.000000
-24.625450 21.536344 9.056054 0.000000
-10.017344 5.842002 7.707481 0.000000
-13.170628 -8.610237 2.398379 0.000000
-18.131153 -5.991060 4.182168 2.000000
11.682666 16.914723 14.762309 1.000000
0.443354 0.250805 0.568535 0.000000
0.694959 -4.085770 10.718002 0.000000
-3.469471 5.829136 10.589722 1.000000
-8.777746 -4.778838 2.649705 1.000000
13.844062 4.034168 2.568784 1.000000
-9.291688 -17.138418 14.826087 0.000000
-19.220858 7.571815 2.540850 2.000000
1.512222 -2.499010 2.043993 0.000000
4.302572 20.445605 10.750711 2.000000
0.589971 24.915644 12.270996 0.000000
-24.467258 13.729843 12.844729 0.000000
15.873275 -10.464644 11.506805 2.000000
12.705049 7.933226 12.828013 1.000000
-11.057634 -9.829787 9.730376 1.000000
5.862123 13.805818 13.693112 2.000000
13.756915 -11.422132 0.920843 2.000000
-20.772756 11.482618 12.392824 2.000000
-22.426891 -9.287927 0.215723 2.000000
-22.635984 -10.683143 5.569677 0.000000
-16.592788 24.613917 10.845726 1.000000
0.708851 -16.801117 14.393538 1.000000
21.548313 -23.137127 4.648593 0.000000
-8.885021 -1.629990 8.857516 2.000000
-2.635884 1.705815 7.182438 0.000000
10.203247 -11.195915 3.725212 0.000000
-9.059247 -12.826133 14.010540 2.000000
12.384822 2.750002 8.285186 1.000000
-22.873051 -10.884044 5.157780 2.000000
9.936899 -0.424600 3.659257 0.000000
11.461639 7.235291 14.849673 1.000000
11.012016 16.521784 9.654575 0.000000
2.737960 -6.943415 14.813209 0.000000
14.796956 21.462879 8.480402 2.000000
-7.298226 -16.568371 10.381797 0.000000
-5.494295 -19.139334 14.306895 1.000000
15.032622 2.279418 13.142171 1.000000
7.189385 5.503711 13.646467 0.000000
-12.293171 17.109271 1.952580 1.000000
20.133876 3.462539 2.230736 2.000000
-15.934245 19.426941 13.990429 0.000000
16.029354 17.470492 10.740694 0.000000
18.447737 -6.790189 1.381092 0.000000
-6.165383 13.136386 6.142667 2.000000
24.995960 20.565965 12.721879 0.000000
7.405767 7.973585 13.035868 2.000000
-14.830961 -10.357560 13.525069 2.000000
-19.164318 -2.488446 3.592580 2.000000
-13.343269 8.996186 4.061970 2.000000
-17.573330 19.457579 12.998312 1.000000
-4.251464 11.673667 12.724547 0.000000
22.596527 -14.244774 5.509629 1.000000
4.879523 16.251057 1.969352 1.000000
-14.586014 2.464152 0.651770 0.000000
-4.485463 14.649638 3.516836 2.000000
-12.670637 3.830079 7.874451 1.000000
-22.610062 -12.791898 5.430913 1.000000
6.399057 17.807342 6.267652 2.000000
-2.203578 -20.755079 4.194357 1.000000
3.817756 -0.866955 5.897600 1.000000
-11.623856 4.853398 6.215369 0.000000
-19.898386 14.843993 4.512403 2.000000
8.809813 -17.725448 10.217577 2.000000
1.228603 15.786549 2.849659 1.000000
3.711872 -4.347735 10.976696 0.000000
11.019700 11.789477 12.077204 0.000000
24.029344 -17.230412 2.752947 1.000000
-4.344352 -14.024403 1.555492 1.000000
4.270319 5.982849 7.278085 2.000000
3.399877 -21.292876 12.219135 1.000000
-11.692456 -12.673618 4.697218 1.000000
12.937578 -13.932838 14.009859 0.000000
-6.138949 23.157898 0.652658 1.000000
-8.271008 20.501352 12.211466 2.000000
-2.760693 -22.362099 9.496953 0.000000
22.520723 23.913922 2.442340 0.000000
9.558341 13.835417 1.923219 2.000000
-23.596795 9.913363 1.880016 0.000000
-8.512981 -21.323451 6.911610 0.000000
-18.454768 -16.935955 8.397018 0.000000
14.352281 22.555653 1.468807 1.000000
-14.009193 -14.712440 6.006633 1.000000
-7.221004 -19.798453 5.263266 0.000000
18.326091 19.617544 9.107715 2.000000
-13.914010 15.934398 4.203792 1.000000
-14.426810 -4.099953 13.833451 0.000000
12.003334 -24.619011 10.334748 2.000000
-11.510917 19.946241 13.364415 1.000000
2.317597 -18.432828 9.169834 2.000000
-4.886165 18.149173 13.819610 1.000000
-23.184822 16.529329 2.495035 2.000000
2.441204 5.985063 14.762132 1.000000
14.660982 22.247318 6.180381 2.000000
-22.910129 6.076980 4.654393 0.000000
10.551657 10.196035 4.422058 2.000000
2.779320 -5.740098 13.863860 1.000000
-3.908625 24.719413 13.634454 1.000000
-9.464488 -7.811635 6.403538 0.000000
5.933352 -12.267755 1.403889 1.000000
12.845278 -15.686069 1.885642 2.000000
10.451991 1.018330 0.828014 1.000000
-18.299238 -11.007574 14.078841 1.000000
-20.378611 4.566821 4.728384 0.000000
2.206525 3.166455 1.427450 2.000000
1.487315 20.536055 13.761453 0.000000
7.383512 9.861794 7.500814 1.000000
-4.725868 24.430362 8.444761 0.000000
-8.533193 12.990081 2.461158 2.000000
15.829765 -19.423773 10.678340 2.000000
-11.450278 -0.801553 8.007025 2.000000
23.749350 -19.893345 3.870243 1.000000
21.277974 12.819894 1.546823 0.000000
19.021509 22.685775 13.451076 0.000000
-14.293949 -11.993887 9.044145 0.000000
-18.357356 15.542502 4.943194 1.000000
-3.644950 14.221315 10.673882 1.000000
22.845187 7.041689 14.397168 0.000000
7.327685 -17.368089 5.476397 0.000000
-19.377887 -23.591894 6.536761 1.000000
2.453796 18.437260 3.067391 0.000000
22.368574 20.173837 6.589975 1.000000
11.350977 -17.652464 2.612604 0.000000
-21.385712 11.173155 14.033264 2.000000
5.331196 0.596378 8.529262 0.000000
0.577511 11.959527 9.397451 0.000000
16.983794 -16.261773 0.879784 0.000000
13.589416 -5.209241 8.479183 2.000000
14.245846 5.286140 0.039526 0.000000
-11.297224 23.788714 0.419062 0.000000
-3.404427 -2.606315 13.572179 0.000000
-20.238517 -9.322988 10.987833 1.000000
-16.014789 -0.856645 3.121122 2.000000
17.117939 18.390761 0.195898 0.000000
-17.446984 -19.697060 7.216154 0.000000
0.064869 -16.847969 1.543876 1.000000
-0.555639 -3.637217 10.158826 1.000000
14.492292 -19.158079 7.900094 2.000000
12.759096 -22.815161 12.690554 2.000000
-14.607031 11.624736 4.037793 0.000000
-14.763433 -22.690836 14.534084 0.000000
-4.991620 9.263174 8.103077 2.000000
-15.010190 3.614016 13.339412 1.000000
-2.590910 2.501276 1.087687 0.000000
4.339508 8.023338 2.173882 0.000000
3.540710 7.049053 1.882778 1.000000
-16.112600 -10.673805 4.660685 1.000000
13.056245 16.112297 7.269488 2.000000
-24.079636 -5.556259 7.989674 2.000000
21.000313 -21.920246 14.429836 0.000000
3.313058 3.351667 13.585029 1.000000
-19.381032 12.326923 13.652822 1.000000
24.895728 20.361401 11.243933 0.000000
-1.581502 23.608435 14.708046 2.000000
-5.141459 2.532580 3.365058 0.000000
-23.558626 24.799184 10.038986 0.000000
20.995239 -11.068326 13.338316 1.000000
14.189408 -19.707890 5.163122 1.000000
-20.753707 -9.203328 14.066453 0.000000
-8.342997 -7.940365 2.976689 0.000000
15.428503 18.178039 0.708510 1.000000
17.138447 -16.215469 13.951040 1.000000
-6.187114 22.883090 13.901311 0.000000
11.838435 -12.642320 11.361908 0.000000
16.691656 9.565932 6.038151 2.000000
-13.259644 14.724997 7.585796 1.000000
12.245662 -4.526005 1.008250 2.000000
4.925407 23.987951 6.929203 0.000000
21.180268 11.825290 7.189031 0.000000
-15.873294 -6.512820 1.267131 1.000000
2.027695 -21.338217 4.994221 1.000000
4.964068 3.920425 4.024489 2.000000
0.684766 0.568184 8.605782 2.000000
7.068891 -5.245111 12.023167 0.000000
17.600828 -1.064438 5.719048 0.000000
-10.469023 -2.396744 14.149990 2.000000
-5.000737 -4.899466 1.622732 1.000000
-12.961117 9.170040 2.647256 0.000000
1.865229 -1.815049 13.585713 2.000000
-17.926056 -17.739085 8.385928 1.000000
7.265393 9.063919 5.378606 1.000000
-10.624653 -13.689977 1.824268 2.000000
22.188530 -24.784242 4.914623 0.000000
0.585285 -21.362715 6.791540 2.000000
18.907894 19.418757 13.852572 2.000000
22.488288 19.696369 9.190506 0.000000
-18.785113 13.148024 10.281136 0.000000
20.594334 -5.206652 7.792363 1.000000
-11.624264 -3.033321 14.377216 1.000000
23.981122 5.294071 9.939221 1.000000
-12.156316 24.107006 12.885609 0.000000
15.599476 -3.704687 4.848881 0.000000
11.531361 16.199129 2.428974 0.000000
-5.704319 1.785237 13.837482 0.000000
-4.034927 12.726678 2.241530 0.000000
-20.779190 -11.252198 1.328561 0.000000
12.751639 -10.638011 5.590098 2.000000
18.952764 10.377045 3.122516 2.000000
4.453354 -0.815671 0.314658 1.000000
8.279399 -8.692195 4.972896 0.000000
0.864535 17.508832 1.783861 1.000000
12.228532 -4.555447 12.385655 2.000000
10.723434 -8.400368 5.527613 0.000000
-23.584042 5.516559 0.308858 0.000000
23.664821 11.157563 0.919024 1.000000
-5.358940 8.131719 10.029600 0.000000
2.725753 18.002651 7.316720 2.000000
11.222012 3.897308 12.383352 0.000000
7.754128 -24.232087 2.432376 2.000000
5.966708 -0.708738 2.471039 2.000000
-7.801956 0.198630 1.984692 0.000000
21.538996 -6.306928 3.410274 0.000000
15.239441 12.183781 5.996967 2.000000
2.192371 -1.083508 6.396546 0.000000
-3.384349 22.964596 14.549732 0.000000
7.880931 -13.540950 3.154387 0.000000
-22.604859 1.357066 4.850089 0.000000
13.360260 -5.774003 9.236245 0.000000
-0.614293 11.095070 10.555010 2.000000
15.830896 11.147077 13.774897 1.000000
-23.527716 12.240242 7.240594 0.000000
-17.056971 -11.575480 4.745689 1.000000
-16.974757 -1.210484 5.535086 2.000000
-14.924565 -14.632130 10.332903 0.000000
-18.394776 19.293294 14.280836 1.000000
-17.945907 20.791322 6.974384 2.000000
-6.738823 -8.977947 3.334953 1.000000
-10.793263 -12.656546 3.559071 0.000000
17.605294 18.493174 10.826798 1.000000
18.422357 -9.696546 11.684419 0.000000
12.708096 18.679437 0.136445 0.000000
22.702583 -20.118768 1.686298 0.000000
4.451802 -22.420990 7.127243 1.000000
-10.392875 -2.717362 8.056894 0.000000
2.459028 -24.609564 6.216908 2.000000
0.561470 -9.114990 2.822611 2.000000
8.379816 -3.356144 6.988165 0.000000
-2.083210 -4.404414 13.322307 0.000000
0.684010 -20.395135 1.188699 0.000000
-12.555150 -3.481808 8.571499 1.000000
6.694830 11.093264 5.241850 1.000000
-4.737440 -19.828456 7.842033 0.000000
14.601393 14.407529 9.336185 0.000000
-19.439793 6.352039 0.733027 1.000000
-10.056122 15.018071 5.319357 1.000000
-2.658152 -23.437789 6.243663 2.000000
-3.694755 -23.983335 2.941248 1.000000
18.924105 -6.551143 12.829181 0.000000
-22.126702 -21.013506 11.310590 0.000000
17.771700 -12.027452 5.890810 1.000000
16.516608 -11.802505 0.406685 2.000000
-11.200503 -9.680986 6.976168 2.000000
-24.365454 3.585180 3.685191 2.000000
12.214844 -17.686103 1.407229 1.000000
12.374499 18.919707 1.183020 0.000000
8.901277 -15.934367 4.960546 1.000000
-11.001355 13.992059 7.217303 2.000000
-9.977459 -0.901834 14.554481 0.000000
9.281275 -13.159101 13.169011 1.000000
8.979659 -7.514658 11.630196 2.000000
-6.851247 -4.661056 4.040397 2.000000
-5.185063 -20.487585 4.250847 0.000000
-23.304788 -4.961031 11.353880 1.000000
8.875905 13.955272 8.363596 0.000000
-7.575975 -2.435621 0.156385 1.000000
3.932350 8.474867 5.321634 0.000000
14.894787 8.536054 5.383094 1.000000
23.687564 -15.518915 11.411772 2.000000
20.412145 20.713177 11.561182 0.000000
7.413164 -0.394724 0.830650 0.000000
-8.026804 4.025530 11.545574 0.000000
-22.643842 0.587413 6.420969 1.000000
-1.689360 -1.176403 13.393864 0.000000
-15.412472 -23.754847 14.505595 1.000000
9.576895 21.922090 11.919106 2.000000
-14.613074 -6.789632 14.917549 1.000000
-20.210155 24.336196 8.144425 0.000000
-10.315717 21.929295 13.883396 1.000000
-15.318214 17.229702 2.231895 0.000000
1.724961 2.148911 8.711021 2.000000
13.000362 -4.440094 14.449745 0.000000
21.253012 -15.720121 13.391749 0.000000
14.482569 6.726938 11.169825 0.000000
-11.796791 18.545930 6.105860 0.000000
23.642237 2.007641 7.184386 1.000000
22.844517 1.229551 0.302148 2.000000
21.227517 -18.807251 3.091021 1.000000
-15.367919 24.948013 2.955955 1.000000
-19.312221 -13.814784 8.137336 1.000000
5.118827 -8.173615 3.261103 0.000000
-21.187575 -6.711103 12.969427 2.000000
13.216958 20.513744 14.808021 0.000000
-2.993201 19.376614 0.938922 1.000000
0.953419 -14.244924 14.693634 0.000000
1.543824 19.485003 12.286943 1.000000
1.470212 -17.672080 2.995954 0.000000
-7.986915 8.927538 13.533172 1.000000
-18.786766 -22.376952 4.704045 2.000000
17.095326 14.074100 9.964256 0.000000
-5.270813 -16.326728 3.006413 2.000000
14.940271 -10.475729 11.007326 2.000000
-24.976475 13.970496 11.610627 1.000000
-1.649046 -21.098577 11.135395 0.000000
-5.155937 -12.840983 1.850124 0.000000
-6.068131 -15.329997 14.726136 1.000000
-19.623827 23.271087 13.206809 1.000000
18.570936 10.091015 3.355073 0.000000
7.702042 -4.372564 6.853798 0.000000
18.515797 -23.601947 12.566146 0.000000
22.013119 -22.986108 12.523797 1.000000
-12.314012 19.991934 9.156016 1.000000
16.154161 17.091828 11.550961 0.000000
9.476422 9.609044 6.230866 1.000000
21.290543 -10.249674 8.019123 1.000000
6.091156 0.315899 8.382449 1.000000
7.406045 2.582486 8.489742 2.000000
11.074533 -4.802906 3.441812 0.000000
-6.206163 -12.711978 12.694071 0.000000
-16.296440 0.265081 10.716992 2.000000
6.487661 -17.208903 14.874400 1.000000
-9.669949 8.485314 2.099180 2.000000
-22.327077 9.032183 3.126370 2.000000
16.114057 -2.403918 7.837053 1.000000
19.533261 7.295514 11.128579 0.000000
-11.012899 -12.601645 13.949583 0.000000
-17.404360 -17.484302 13.293982 1.000000
-17.518152 -22.938989 5.255497 1.000000
-3.390009 -21.913303 11.503112 0.000000
6.225262 10.253288 4.102909 2.000000
10.764739 -24.897575 9.144483 1.000000
1.343145 -20.112800 7.381699 2.000000
-9.832932 21.596143 4.551433 0.000000
3.777481 -17.856617 10.858030 0.000000
19.363893 -10.905574 7.666756 2.000000
6.973263 -19.511455 1.525286 1.000000
4.449651 -18.513011 7.803261 1.000000
12.394978 -17.273943 6.569433 0.000000
-15.814452 18.825949 9.450507 2.000000
-17.948635 17.695652 2.803570 0.000000
-22.589654 9.117863 13.155951 0.000000
24.314466 4.872161 3.402992 0.000000
13.227163 -7.826724 0.795954 1.000000
-24.487710 5.008544 9.234792 0.000000
-7.914585 6.098901 13.567300 0.000000
-12.242901 5.538889 4.215701 2.000000
17.175710 20.867495 14.577438 1.000000
13.275622 -11.325620 13.056145 0.000000
13.958663 5.077877 2.372867 0.000000
2.582185 -18.246318 8.175741 2.000000
-6.969935 2.998384 1.340502 2.000000
-4.999064 0.915391 3.807273 2.000000
4.810187 -15.164507 1.456418 0.000000
-19.246485 -11.192073 10.735140 2.000000
-24.615732 -3.021357 12.552822 0.000000
17.975342 -0.529577 4.430557 1.000000
-21.185503 -10.704291 8.722766 2.000000
-24.911803 11.695856 0.631956 0.000000
16.019615 -20.099369 10.576114 1.000000
-20.441733 -20.543197 7.447395 0.000000
22.776619 -14.698945 6.435436 0.000000
-9.480663 -11.477414 8.579579 0.000000
-4.859400 0.888599 1.871624 1.000000
-9.847827 -23.326181 12.136194 1.000000
5.057313 -13.463038 12.680871 2.000000
-17.942310 -8.639260 4.024773 1.000000
3.635017 -7.557206 2.897570 0.000000
-24.574318 -9.602805 8.095116 1.000000
18.614901 -7.127350 4.020739 2.000000
2.129915 -6.124298 9.382145 2.000000
-23.189886 16.414950 11.391784 0.000000
20.949353 14.429585 4.235620 0.000000
24.913366 -13.231641 0.506487 2.000000
-7.063376 -19.724973 2.429884 1.000000
18.313071 -20.592406 10.357208 1.000000
13.909909 -10.167154 14.193732 0.000000
-5.596119 14.403858 1.767006 2.000000
-2.836211 -0.994733 2.485718 2.000000
-15.094517 -17.244083 3.478817 0.000000
-22.809605 -24.718441 1.192775 2.000000
23.429500 9.127153 10.531992 1.000000
5.476076 -2.570137 3.522017 2.000000
-10.382066 -15.540579 14.306271 0.000000
11.183467 18.371374 1.663161 2.000000
22.117788 10.456419 13.415533 0.000000
3.310616 -24.862552 3.394111 0.000000
-14.267361 -12.052038 12.372650 1.000000
13.561878 -6.436287 9.831593 0.000000
-23.592115 2.227983 12.912206 0.000000
-13.077870 14.376157 1.060145 0.000000
-22.618721 11.055800 4.430429 0.000000
20.857412 -5.564095 6.988961 1.000000
11.001625 23.190637 3.398894 2.000000
23.207745 1.812994 7.658246 0.000000
12.249428 10.334372 8.389011 2.000000
-7.478414 16.079970 12.153479 0.000000
10.527452 16.363087 3.226150 0.000000
-7.899140 3.588634 8.944956 2.000000
18.959584 17.579241 8.169314 2.000000
8.612221 -11.413818 12.209627 0.000000
13.641635 -24.528245 13.011336 2.000000
-21.576318 -6.590587 0.983321 2.000000
-1.512039 24.874174 8.464863 0.000000
19.404010 1.826499 11.563460 2.000000
0.428173 1.002353 0.957961 1.000000
-3.578326 -21.555668 2.844277 0.000000
-8.362537 21.617663 14.885718 2.000000
12.823111 16.627381 13.899907 0.000000
16.863050 22.309380 7.053493 0.000000
-11.395700 18.119715 14.132585 1.000000
22.067612 -6.094697 10.011368 0.000000
2.985770 -19.050749 12.783954 1.000000
-0.938451 15.022689 5.597834 0.000000
19.235482 -12.294468 8.130293 0.000000
-20.972921 -2.861908 6.943495 0.000000
-23.583538 -14.268859 5.239203 2.000000
-11.502686 2.785775 12.754008 1.000000
8.075213 -2.267745 9.376967 2.000000
10.444064 -9.683783 2.337867 1.000000
6.108766 -6.474121 10.582410 0.000000
-24.176746 -16.429849 4.997849 1.000000
-0.482795 -8.900737 6.648616 0.000000
-12.507965 9.444827 4.794685 0.000000
6.922675 -10.589762 14.128899 0.000000
3.647703 -22.320019 13.181198 0.000000
-20.521538 -6.421626 9.385986 0.000000
7.476929 11.866654 7.115537 1.000000
-23.141448 -7.378942 1.094120 1.000000
20.323672 -10.173542 11.747238 1.000000
-17.405971 0.001160 13.811280 0.000000
-13.268989 10.902437 12.652252 2.000000
-9.941208 17.053597 10.062233 1.000000
22.442054 22.332166 1.604022 2.000000
12.811147 -23.360922 2.933404 1.000000
21.095394 -12.198124 3.618478 2.000000
3.453771 -18.853404 8.265928 2.000000
15.273933 16.727439 5.915827 0.000000
3.922064 24.346748 14.240503 1.000000
-10.473664 24.843572 2.157457 0.000000
3.638032 1.893503 0.799769 1.000000
9.118969 20.670766 10.297781 2.000000
-15.665281 4.798571 1.920447 2.000000
13.438408 18.002747 7.661941 2.000000
6.604393 19.246453 5.193897 1.000000
21.997506 -0.180319 10.829503 2.000000
3.793363 -22.365472 10.708418 0.000000
0.128317 -11.402835 7.749767 1.000000
-13.079662 13.703154 13.643900 1.000000
6.168165 -16.399604 14.943092 1.000000
22.126586 17.551677 10.050130 0.000000
11.679728 10.568572 4.057536 0.000000
5.433734 10.040869 14.665669 2.000000
3.493563 -7.310676 6.166088 0.000000
15.311779 23.622140 1.964896 1.000000
22.532250 -3.410185 11.090443 1.000000
-15.169075 -5.077748 14.398731 1.000000
13.523517 -3.203050 13.074791 0.000000
-16.247873 16.806210 7.696655 2.000000
6.363813 23.622381 1.474345 2.000000
1.617650 -19.422644 6.921807 2.000000
7.385464 -3.242437 14.249275 0.000000
1.521629 12.804028 3.506313 0.000000
12.034254 4.692718 6.534221 1.000000
-1.242346 9.005641 11.685228 2.000000
-4.421044 -23.985458 12.615307 0.000000
24.364495 -4.924246 2.623397 0.000000
-2.103259 -11.560793 13.080666 0.000000
8.714794 -20.477865 7.623790 0.000000
-13.573652 -10.772393 10.988016 2.000000
0.401021 -17.353712 8.769849 1.000000
12.510674 -22.517116 2.175823 0.000000
-5.459172 6.364484 14.208432 1.000000
-20.378147 -3.484192 8.833392 2.000000
-2.441518 13.494577 6.357271 1.000000
-7.027693 -14.777140 2.499040 2.000000
-5.692440 -2.529399 4.924525 2.000000
-7.429007 3.405780 7.188247 1.000000
-18.738321 -3.412281 12.277749 0.000000
5.875883 -13.275037 0.730112 0.000000
-20.494029 13.922028 0.551384 0.000000
24.157702 11.332410 2.267991 1.000000
-6.717815 -19.383381 2.329148 0.000000
-12.903464 -17.561601 7.576117 2.000000
-2.066366 -13.027800 3.863319 2.000000
-8.203889 -14.951931 13.231725 0.000000
-5.925260 -8.199329 0.697324 0.000000
5.283996 -16.095039 14.629709 2.000000
3.174029 0.903983 11.679966 1.000000
15.944982 12.012219 10.591892 1.000000
22.516230 -22.201266 1.612665 0.000000
11.629667 21.477548 9.867058 1.000000
20.618334 -15.717956 10.816525 0.000000
1.714703 16.379372 7.410058 1.000000
3.508306 8.725160 9.106759 0.000000
-20.834762 17.408963 4.231556 2.000000
-22.657841 -0.786868 6.802664 0.000000
12.379229 24.526155 7.257356 0.000000
-17.364727 5.146597 10.768992 1.000000
9.000777 12.713972 13.411797 2.000000
20.132028 -17.191047 13.322957 0.000000
-15.292426 21.506896 4.038963 1.000000
21.626331 6.189178 3.293144 1.000000
-9.255109 -14.571256 4.678638 2.000000
-4.557310 -18.287182 13.545167 0.000000
-14.781638 15.643525 7.344816 2.000000
13.551706 11.516890 13.382933 1.000000
-24.780682 11.914813 0.397739 0.000000
-17.950964 -10.515600 14.390962 2.000000
-24.012034 14.265902 5.398513 1.000000
22.119565 -2.910713 13.259122 0.000000
-2.139866 15.680498 6.181255 1.000000
-6.963173 12.742993 14.039520 1.000000
5.572664 -3.702657 4.736195 0.000000
-1.362660 -7.374905 14.762617 1.000000
0.956984 10.027070 6.292217 0.000000
-7.200318 -8.157016 0.239112 1.000000
-23.341050 7.888155 6.761636 1.000000
7.515640 -16.496470 7.511529 1.000000
-9.923269 -3.872723 9.818153 0.000000
1.238843 -8.969120 5.066900 0.000000
-19.039587 9.809440 7.155903 2.000000
-8.016285 -0.973509 6.522020 0.000000
3.251703 -0.652443 8.134879 1.000000
-5.546435 4.169714 9.816823 0.000000
-18.943460 18.418631 7.094691 2.000000
14.764847 24.905535 2.521760 0.000000
-9.279357 -3.864357 1.801087 2.000000
17.736294 -1.235704 9.318967 1.000000
-8.912410 -5.211460 8.943651 0.000000
1.859955 -13.512227 4.227816 0.000000
-17.933227 10.051784 4.564678 1.000000
-17.481107 4.286032 9.322454 0.000000
-15.368054 -18.732504 11.832722 2.000000
-16.722832 -20.552460 6.123279 1.000000
12.542617 17.801012 6.036527 1.000000
-7.522003 -11.303572 12.737951 1.000000
12.928793 23.620242 4.255057 2.000000
3.127936 22.452890 5.127654 0.000000
-9.124010 17.896066 13.256696 0.000000
-18.797151 -20.231452 14.355650 2.000000
3.704736 21.843247 5.087156 2.000000
-15.105782 0.081727 6.320199 2.000000
9.357723 17.988920 12.459531 0.000000
21.426209 0.619274 9.751730 0.000000
11.382598 -24.229168 9.138419 0.000000
12.370412 -14.329031 3.660249 2.000000
-14.770201 21.441670 11.146078 0.000000
-8.775898 11.698520 10.508536 2.000000
-8.711323 11.873656 12.741955 2.000000
-11.914484 6.555086 4.281557 1.000000
-3.556909 8.349275 14.705174 1.000000
-10.506354 17.418888 6.446740 1.000000
12.314408 12.667174 6.122757 1.000000
5.624446 2.785354 3.260398 1.000000
-16.512832 -24.663711 0.800705 2.000000
12.560442 15.568272 10.985026 0.000000
-8.463494 17.604289 6.630239 0.000000
3.983409 12.129635 4.535837 2.000000
24.258948 -12.425666 14.721461 0.000000
16.003075 -2.901517 4.556720 1.000000
-16.370898 -15.614946 0.609358 0.000000
24.286563 -7.123900 4.185237 0.000000
6.416285 17.974018 13.350733 0.000000
-14.997638 -19.642782 13.383581 2.000000
3.602126 4.151738 3.032148 0.000000
24.346549 21.578509 9.738024 1.000000
-4.036424 4.639660 6.003772 2.000000
12.416065 1.282526 7.334744 0.000000
-23.448613 -3.156289 4.997440 0.000000
-9.171715 8.949701 10.283086 0.000000
18.278375 -23.087074 7.058351 1.000000
-0.681964 21.121773 9.498653 2.000000
24.378381 -10.240484 9.904292 0.000000
-9.547688 -16.776017 13.177450 0.000000
-5.862143 -5.364924 10.431673 0.000000
2.588074 7.779180 4.536643 1.000000
16.019163 -10.561558 10.740539 0.000000
-0.707675 5.541447 0.735178 2.000000
13.040640 4.893324 13.780938 1.000000
-7.785720 1.132448 10.856295 2.000000
-21.567366 -8.153171 13.884675 2.000000
11.926408 -4.477562 4.268600 1.000000
22.823244 24.612491 6.623641 1.000000
16.350794 -12.858439 0.056338 2.000000
24.476687 -16.012767 6.470041 0.000000
20.550823 -4.407410 10.399005 2.000000
24.863859 19.346693 14.448212 0.000000
-0.332821 6.682575 1.255162 2.000000
-5.421342 11.006882 10.693735 2.000000
-18.607884 -23.392624 3.190414 1.000000
2.780689 24.154761 9.632442 1.000000
-13.556347 13.068480 3.868598 0.000000
10.875499 21.720604 9.835788 0.000000
6.777063 -22.490656 11.712896 0.000000
-13.482798 6.597749 9.300482 0.000000
0.440419 5.824494 1.764513 2.000000
1.177424 -8.916410 6.258758 1.000000
-4.037206 -11.767099 4.054327 0.000000
-16.156694 2.510005 0.019403 0.000000
-14.927346 -1.524464 0.573294 1.000000
-14.471962 -17.276342 9.174776 0.000000
16.504015 -19.844058 10.774238 1.000000
-18.417435 -16.460783 4.695006 1.000000
-13.251023 3.195581 14.874977 2.000000
13.835100 -24.862714 12.861022 0.000000
-3.264436 -2.449206 1.120436 1.000000
-5.083072 -23.204870 1.403535 1.000000
13.017503 11.123915 4.106815 2.000000
18.812720 10.152443 8.119693 2.000000
-9.465493 -0.117422 5.592298 1.000000
-23.347021 4.917405 8.343553 0.000000
-20.084513 24.305954 13.122421 0.000000
23.135585 10.293471 11.355147 1.000000
1.616202 18.087253 7.954652 2.000000
8.760749 19.949518 0.121277 1.000000
-1.847319 -14.922244 10.016959 2.000000
-19.909955 10.151395 1.181629 0.000000
8.483681 -24.937477 7.988664 0.000000
-23.478417 24.056536 4.411634 2.000000
-9.893412 15.091341 12.063915 1.000000
18.411075 6.776009 3.045826 2.000000
9.620202 11.183693 14.383121 0.000000
7.430311 11.254915 5.157801 0.000000
-12.713432 10.362043 8.648892 1.000000
24.839642 23.745511 7.229627 2.000000
4.624831 -3.057222 9.035381 2.000000
19.287483 18.237062 14.945136 0.000000
-8.991570 -7.911720 10.984215 2.000000
-11.045528 4.984635 4.571830 0.000000
18.945091 16.103786 10.149979 2.000000
20.234501 -5.511616 0.162490 0.000000
4.653910 17.056509 11.869831 1.000000
-17.384046 5.036177 12.959322 0.000000
-21.864115 18.551959 14.480208 2.000000
11.564850 22.330713 10.755669 0.000000
-3.333803 9.430534 0.223446 0.000000
-3.669752 -0.135562 4.848233 2.000000
-24.488201 24.554282 10.872874 2.000000
23.886467 3.357424 7.536317 0.000000
10.069453 24.590273 6.785076 1.000000
2.494227 -9.428768 8.422738 0.000000
-20.035109 -13.280529 1.441002 1.000000
4.033696 -4.707282 7.034732 0.000000
24.883558 13.906330 1.156164 0.000000
-9.801434 3.183508 4.764290 0.000000
11.927449 17.573031 0.814229 2.000000
-9.471240 20.018614 10.323165 0.000000
-12.229174 24.985592 7.500829 0.000000
-3.681831 -2.371174 1.185882 0.000000
-11.040656 19.965086 4.530822 1.000000
24.574118 9.710796 2.343923 0.000000
2.167121 -23.956998 8.789101 2.000000
5.870553 -14.294602 0.790652 2.000000
24.550277 15.431987 11.943743 2.000000
-8.533613 16.085166 11.534516 2.000000
-20.429642 -1.026678 6.730006 1.000000
5.253027 -13.406835 1.596870 0.000000
-11.278594 5.277678 2.682177 0.000000
3.761165 13.529590 2.451873 2.000000
0.343681 -21.620422 9.058468 2.000000
8.877167 22.377437 13.894036 0.000000
8.718193 -1.746859 6.820930 0.000000
-17.824664 -2.776876 1.526211 1.000000
0.912873 5.632910 2.236822 2.000000
-5.946389 24.108756 7.112734 0.000000
21.169065 -20.110292 10.869071 0.000000
-2.993673 -24.877892 10.096706 1.000000
-16.412609 -15.371432 11.732752 0.000000
-13.048530 22.659386 11.576161 2.000000
3.705991 -19.947481 14.100770 0.000000
-7.063481 19.480676 8.988851 0.000000
3.003118 15.519809 3.581668 0.000000
-9.626914 -16.131869 10.169068 0.000000
-13.622694 -13.941514 0.665554 1.000000
6.302518 17.808525 2.901642 2.000000
14.483326 15.322107 3.944989 0.000000
24.547713 17.269988 7.571303 1.000000
-23.313246 17.925873 4.739509 1.000000
-12.785501 -1.297675 0.944731 1.000000
-1.118637 23.655020 0.925775 0.000000
24.874219 17.018152 0.855172 1.000000
-9.014210 -12.916005 6.470095 2.000000
-21.157836 -4.136680 14.039529 2.000000
9.170057 -16.637162 8.423858 1.000000
-4.189104 17.710399 7.669469 2.000000
-12.685324 -6.280039 4.879036 1.000000
3.733213 10.251921 8.405003 2.000000
14.761010 -1.770485 2.932648 1.000000
12.347219 -14.297574 6.141307 0.000000
-3.620424 -22.858293 0.176661 0.000000
21.325843 -14.652608 8.467598 2.000000
-10.273867 -16.343191 3.415394 2.000000
-6.203187 -9.590451 6.278062 2.000000
-3.316548 -14.450114 13.008348 2.000000
9.508883 6.224961 4.563366 0.000000
-10.807474 18.769339 9.280427 2.000000
1.078667 20.300411 6.692318 2.000000
24.130887 13.378215 1.659322 0.000000
2.991862 -9.177883 3.052729 2.000000
-21.805903 9.659191 3.728646 0.000000
-19.507528 -15.372318 1.954743 0.000000
-12.698788 -24.904971 2.896632 0.000000
14.827085 3.533137 4.157275 2.000000
23.646736 -24.253079 5.969445 1.000000
16.549554 -20.074829 3.766400 2.000000
22.398571 -8.983130 6.120641 2.000000
22.445902 3.976552 6.696972 2.000000
4.120774 22.480923 2.833092 0.000000
4.969774 21.839706 2.751545 2.000000
22.539845 17.467986 0.524100 2.000000
-18.004356 9.297248 7.644878 1.000000
4.669627 13.394178 8.932352 1.000000
14.303231 -7.533030 13.868472 1.000000
20.437345 -8.110162 1.547519 1.000000
3.029550 23.525705 9.359127 0.000000
-2.430879 -4.565014 11.283887 0.000000
-19.880112 -9.774646 5.322108 1.000000
-17.035847 18.100012 2.728759 0.000000
3.113383 16.864064 1.793036 0.000000
-8.416698 8.388009 6.295762 1.000000
17.084972 -11.912275 2.700573 0.000000
6.765681 12.680441 3.806092 1.000000
7.874640 16.068324 7.453258 2.000000
-3.101762 -14.787242 11.704743 2.000000
-6.106871 24.123637 6.550372 0.000000
-8.967040 3.846637 2.496823 1.000000
-19.898625 1.956365 7.892574 0.000000
-21.921233 12.898592 6.237566 1.000000
-7.674677 -6.281091 4.016384 2.000000
-11.378950 18.271474 4.099499 1.000000
-4.497907 -13.383195 13.849815 1.000000
-17.888938 4.648405 7.235300 0.000000
-23.459192 -15.595797 12.681500 0.000000
-21.268910 -6.532532 14.274620 1.000000
24.766042 -22.733571 4.300788 0.000000
10.120520 -8.134155 8.728372 0.000000
-21.003920 -13.183355 5.135555 2.000000
-5.154036 -19.212943 10.479241 1.000000
9.543408 5.863362 7.722778 2.000000
-0.766584 24.835832 4.933457 0.000000
-7.086418 6.891214 10.071944 2.000000
-22.791045 8.104725 8.253452 2.000000
-3.640874 -19.102873 9.408748 2.000000
-23.768299 -1.525968 8.205481 0.000000
-4.510412 9.685953 8.717250 0.000000
-6.587884 0.202434 8.643193 1.000000
8.484555 -23.325880 1.225537 1.000000
5.943953 0.620890 13.906574 2.000000
-14.846922 -15.219158 9.462121 0.000000
17.870851 18.977564 7.536295 1.000000
-11.209218 15.351382 1.145629 0.000000
10.615459 21.884120 14.270840 2.000000
-4.227071 4.793549 7.770864 0.000000
-0.894933 -22.451290 13.123172 0.000000
-1.517204 -10.265237 1.049854 0.000000
6.230596 11.019417 6.165952 0.000000
-0.885574 20.234014 7.198853 0.000000
1.546727 -21.270438 4.258995 0.000000
-15.894477 18.866279 5.335344 0.000000
14.112427 -0.863678 1.601259 1.000000
-2.750440 -5.863351 4.756901 0.000000
11.231880 23.835110 9.147163 2.000000
10.823854 20.128049 4.808732 1.000000
-12.559893 0.741944 9.558866 0.000000
12.333910 11.434205 1.214743 0.000000
-5.299956 -14.595356 6.749948 1.000000
15.971544 7.684109 0.379035 0.000000
19.948417 -2.509215 7.886400 2.000000
17.146735 11.086693 7.865703 1.000000
-4.714701 5.959495 9.178315 0.000000
-15.122917 -17.626786 3.086238 0.000000
-21.636495 20.228636 3.116518 1.000000
-9.103915 17.363183 9.837778 1.000000
18.687751 -17.629556 10.596446 2.000000
-22.841009 -23.433067 10.874878 0.000000
-13.554541 24.428758 3.592369 0.000000
-2.265014 9.952707 8.763718 0.000000
-10.896345 7.816133 11.482478 1.000000
24.463289 -16.329561 8.017342 2.000000
13.963861 5.858200 14.191164 2.000000
-13.584828 -24.228278 14.286322 2.000000
-5.774068 16.763818 4.165778 0.000000
3.478306 12.598769 11.046419 0.000000
6.597829 5.938583 0.094447 2.000000
0.001471 19.929706 0.077411 1.000000
1.055917 0.431300 6.735227 2.000000
22.476273 -3.406725 13.337923 0.000000
3.891019 -19.569873 13.008057 1.000000
15.059982 10.776120 9.119049 2.000000
6.353302 7.391490 5.133565 2.000000
-23.526388 12.074353 7.720269 2.000000
11.065375 -9.064371 1.341985 1.000000
9.343374 -7.654433 11.893295 1.000000
12.187518 -19.949845 3.981260 2.000000
-1.255860 17.134069 11.665715 0.000000
-3.146908 3.862101 9.865057 0.000000
-8.875017 -11.489052 5.284489 0.000000
5.031436 16.216186 13.672221 0.000000
17.013462 20.103485 7.010304 2.000000
-19.950427 11.728729 3.130976 2.000000
-1.566723 -16.520229 14.887355 2.000000
-7.977923 -17.950244 8.736281 0.000000
4.892396 -4.599570 0.730090 1.000000
6.388484 19.973486 5.365479 2.000000
-0.449533 15.965523 14.635787 2.000000
1.005722 -8.461043 5.721619 1.000000
14.100726 21.353289 10.619419 2.000000
7.842069 14.206395 7.814193 0.000000
-17.103020 -13.985391 6.632755 2.000000
23.992772 7.104914 8.842047 0.000000
-0.459831 19.552267 6.834251 1.000000
-15.413328 24.089152 11.327419 0.000000
-14.221692 6.245755 14.086276 2.000000
22.002779 12.171955 14.201878 2.000000
23.760387 -17.448507 4.694864 1.000000
13.246680 24.370373 9.781066 2.000000
9.079905 18.006223 0.955446 2.000000
5.817384 -8.694689 7.790330 0.000000
-21.804831 12.841999 5.109142 0.000000
1.180963 -10.140896 14.789159 1.000000
-3.217800 -7.667008 10.614016 1.000000
16.132041 20.300680 2.136277 0.000000
24.779577 -5.183582 5.512491 1.000000
-14.873475 -13.420506 4.131051 0.000000
15.470086 -3.073739 13.879401 2.000000
-6.454062 7.318279 3.428246 2.000000
9.724461 20.168609 11.476160 1.000000
16.071952 13.234938 4.618739 0.000000
-5.254781 -5.823985 8.382702 0.000000
-9.897411 -21.809695 0.815849 0.000000
20.387691 -23.666613 1.171505 2.000000
1.820197 3.186038 0.869676 2.000000
9.051553 -18.367770 7.394279 0.000000
-1.620179 -11.361392 11.927793 0.000000
12.075784 -10.719706 14.544603 0.000000
-6.641468 10.438591 12.205888 2.000000
-8.067663 -7.798062 1.037465 1.000000
9.923438 -12.009797 5.955230 2.000000
-24.607994 0.387078 7.902503 2.000000
-14.425990 -23.578595 13.845305 0.000000
-10.542399 2.635540 12.196704 0.000000
19.684427 1.736484 6.163192 2.000000
6.734020 8.124785 2.832415 0.000000
9.633904 10.352543 7.624432 2.000000
24.614617 21.546846 0.558083 0.000000
23.713871 8.627516 0.872309 0.000000
18.171362 -13.853114 11.011857 2.000000
-6.380716 0.929583 10.026194 0.000000
-0.753864 1.149507 14.349219 0.000000
-5.863303 -1.970264 6.188778 0.000000
-10.784896 -5.091813 5.389425 0.000000
17.534482 11.385357 5.063444 1.000000
11.300266 8.840319 0.499672 2.000000
-6.722708 -6.383210 8.368403 2.000000
-1.386332 -14.262527 6.645069 1.000000
15.279703 1.594759 8.321339 1.000000
-1.738330 -18.169787 8.966376 2.000000
-10.122031 18.242606 2.583607 2.000000
-6.362513 -8.477505 14.156476 0.000000
-0.067852 7.000463 0.369263 1.000000
7.437988 20.997348 13.512058 0.000000
-22.238617 11.399537 12.533606 0.000000
24.951569 -8.292903 2.433104 0.000000
9.110763 -21.432837 2.855438 1.000000
-15.774670 22.595631 12.967855 2.000000
-4.056584 -3.484294 8.030031 2.000000
13.192709 -18.736776 6.667657 0.000000
7.466174 14.601211 10.352246 2.000000
-22.384607 -15.713775 0.775106 2.000000
13.758420 17.943633 14.778380 1.000000
14.306594 24.155557 2.073778 0.000000
22.847866 19.122803 13.391188 0.000000
7.447257 -8.489239 1.641839 2.000000
15.022727 6.271234 4.116068 0.000000
20.166721 15.510625 11.632663 1.000000
6.662432 -18.839739 0.983842 1.000000
18.248061 -14.433284 2.883060 1.000000
-21.002856 3.017555 11.290339 1.000000
16.599694 0.520819 4.474858 1.000000
-20.221497 -5.986831 5.388697 0.000000
-19.388395 -19.130276 5.697111 0.000000
2.971982 22.195696 7.713039 0.000000
-24.447514 8.428703 6.572235 2.000000
-21.237387 -17.046046 5.872936 1.000000
17.300561 -1.028213 2.593320 1.000000
13.079761 -7.407742 0.511358 1.000000
-2.969414 7.787898 3.469131 2.000000
22.069963 -3.482843 6.223779 1.000000
18.023192 22.528842 0.442432 1.000000
1.563974 -15.784367 6.092522 1.000000
2.336464 -6.271076 4.319177 1.000000
19.009570 11.955124 12.658665 1.000000
-17.325810 18.692316 2.671887 0.000000
10.155022 10.863695 14.655006 1.000000
-16.782045 16.462479 10.245887 1.000000
-15.870075 20.001720 1.153344 2.000000
17.737346 -15.434468 14.156976 0.000000
-15.197602 2.006886 6.959296 0.000000
19.027006 -17.152510 1.651345 2.000000
3.564048 -7.312506 4.626644 1.000000
-23.713384 2.032937 5.891855 2.000000
-4.348539 -2.219303 4.992009 1.000000
-15.276396 10.655580 2.820166 2.000000
7.320829 10.341830 11.238003 0.000000
7.872813 15.750013 2.359434 1.000000
-13.673409 15.098123 6.318696 2.000000
-20.466892 -10.326250 6.079149 0.000000
-1.247252 22.758270 6.890253 2.000000
-4.249072 -16.027662 8.587186 2.000000
-8.888712 -10.960753 10.644090 1.000000
0.452349 -2.878996 2.629310 0.000000
18.203389 -5.685199 11.557579 2.000000
15.120488 22.872146 7.374783 1.000000
2.151616 8.018919 0.769694 0.000000
10.262764 23.416488 3.456789 1.000000
-2.681024 18.069262 7.831225 0.000000
2.891146 8.578543 12.895708 1.000000
10.533605 18.854000 10.581743 1.000000
-7.756260 -7.608823 10.334013 0.000000
19.383538 16.511817 8.514309 1.000000
-0.330250 -11.167436 7.439677 1.000000
3.639609 -14.125945 7.569832 0.000000
-12.595002 22.606750 6.953873 1.000000
19.799679 13.602357 13.419129 2.000000
22.358809 1.311011 2.433360 1.000000
18.500543 17.671002 9.880720 0.000000
-8.975090 3.658385 0.047488 0.000000
21.591134 17.944375 4.469992 1.000000
-22.254386 -24.890402 5.305260 1.000000
-18.657962 10.822715 0.900354 2.000000
-4.201098 -1.057192 7.723903 1.000000
-12.195262 -15.815015 6.445775 0.000000
14.401517 7.649423 0.186688 2.000000
-14.094637 23.837728 1.770479 0.000000
19.919070 -9.031701 4.388056 2.000000
-3.354677 -18.979303 6.434467 0.000000
4.736738 -0.695113 9.040661 0.000000
14.646964 21.815055 12.049466 0.000000
-3.248138 23.287774 9.838903 0.000000
23.143100 -13.889324 2.952836 0.000000
-3.622305 21.869873 2.061426 0.000000
-7.040573 -16.890011 3.405156 2.000000
4.582104 17.364879 13.855331 2.000000
19.501614 3.510279 1.780514 2.000000
17.266575 -15.404868 0.393327 0.000000
-21.361395 2.947162 0.910202 1.000000
-4.706170 -19.725059 0.157177 2.000000
17.230958 9.160554 2.662019 2.000000
-11.767353 -21.734225 11.669164 0.000000
4.044191 -7.292928 7.068561 0.000000
-5.414891 -18.179065 5.004472 2.000000
24.119027 -20.828918 9.635306 2.000000
-8.086137 -3.814588 2.709895 2.000000
3.216678 13.519032 7.984168 2.000000
-13.860767 -21.820694 4.013469 1.000000
-7.528479 0.824965 9.397669 1.000000
-18.315206 -12.302314 6.848353 2.000000
-16.076885 16.660624 2.060193 2.000000
9.534078 1.805086 13.472437 0.000000
-20.475554 -16.693345 8.292941 0.000000
14.685449 -18.129714 2.990617 1.000000
12.918810 4.025371 6.164951 1.000000
-11.057436 -11.972267 14.639097 2.000000
14.528917 -11.351645 9.725415 0.000000
-9.154045 17.312665 13.412564 0.000000
21.558669 -11.451119 10.563621 0.000000
11.733062 22.717787 6.676621 1.000000
-13.846292 -21.109840 3.918466 0.000000
24.275633 -3.664568 2.604376 2.000000
16.074413 -20.234380 14.504093 1.000000
1.794793 14.770546 10.660747 1.000000
17.582030 2.787901 10.914444 0.000000
-9.240134 9.445975 8.126444 2.000000
-24.677613 9.149647 11.274071 0.000000
-15.472168 10.647298 4.790059 0.000000
13.007187 15.855383 9.821237 0.000000
-3.746914 -9.341462 7.912705 1.000000
-5.498343 -17.826191 3.987418 0.000000
20.089732 12.740791 10.946056 1.000000
21.573572 17.632805 8.190294 2.000000
5.912375 -24.531911 2.235533 0.000000
-14.179993 -4.855812 0.646880 1.000000
-3.921876 24.616967 0.754732 1.000000
-19.252399 -20.963726 12.257719 2.000000
7.018960 -19.299340 4.593880 0.000000
-24.449809 14.676511 1.901010 1.000000
-17.825997 17.846031 9.356943 1.000000
14.890454 -22.024385 4.206107 1.000000
15.203994 -22.254345 7.794892 1.000000
11.952875 -17.168666 4.239317 2.000000
9.801014 19.483562 12.188189 2.000000
-23.093924 15.881385 11.991769 2.000000
-15.720716 -17.897241 14.662695 0.000000
-19.854774 15.211625 9.667271 1.000000
-6.387867 9.889525 1.474772 2.000000
22.305507 22.423384 9.170078 1.000000
-9.932031 11.384376 14.078749 2.000000
0.558434 -7.188622 10.420081 2.000000
-13.785403 1.530067 3.308791 1.000000
20.442145 16.666828 4.961994 0.000000
-6.626720 -13.262717 10.497520 1.000000
-9.366727 0.572017 7.746402 1.000000
13.869693 -22.220686 10.891334 0.000000
-24.595369 -16.069702 3.042148 2.000000
9.029119 -23.153747 13.014687 1.000000
16.692959 22.619101 9.149730 0.000000
-14.888890 -6.643910 4.645467 1.000000
-11.358176 -16.607452 7.693912 1.000000
12.974905 -24.150065 11.094750 0.000000
-13.426612 -19.785683 3.502425 2.000000
3.868734 -14.391500 7.379798 0.000000
-13.681024 16.368486 2.839620 0.000000
-11.093858 -17.676741 2.120387 0.000000
10.244970 -6.325737 7.053193 1.000000
19.088614 11.911849 13.471665 2.000000
24.201497 14.854743 0.753051 2.000000
11.355100 21.296449 14.832138 1.000000
-8.111938 24.889040 4.192858 0.000000
-5.111087 1.293408 13.738012 0.000000
20.320420 3.979335 11.068176 0.000000
-11.069811 3.640591 14.671909 1.000000
-18.701313 -10.828770 11.955544 2.000000
-3.124034 20.351808 14.482822 1.000000
-13.234264 -14.099630 11.603556 2.000000
-19.354103 -0.053298 4.605091 1.000000
-18.034919 17.109716 7.714856 2.000000
8.673626 -18.841376 14.982195 0.000000
-20.859569 -4.491309 14.503861 2.000000
15.835560 -0.314612 8.920515 2.000000
4.918155 15.712437 3.604414 2.000000
-9.117479 5.558461 6.605999 0.000000
20.104282 -5.949647 0.842186 0.000000
10.774415 3.958862 11.836060 2.000000
3.528045 -15.074198 5.461027 2.000000
9.611305 -13.195755 5.805913 1.000000
-20.652310 -8.701786 0.363035 0.000000
-8.838880 23.994863 14.882610 0.000000
-19.503188 -14.907049 14.529250 0.000000
-21.093883 -9.496392 0.986563 0.000000
-13.169447 0.348036 0.494957 2.000000
-17.034667 0.355452 1.266554 1.000000
22.927017 -1.321414 11.801207 0.000000
-1.408057 -9.708340 12.700995 1.000000
1.353956 10.148892 10.562815 2.000000
-3.116578 15.164725 2.103083 1.000000
-2.268138 -15.740935 10.605321 1.000000
17.271119 -22.781286 7.708125 1.000000
-2.646782 0.980713 10.656617 2.000000
0.234265 -17.004414 1.064963 2.000000
-4.267927 3.864112 6.425683 1.000000
-12.430912 24.708197 14.901226 1.000000
23.360701 4.112692 5.312683 2.000000
16.208467 -6.227908 6.689013 0.000000
1.785855 5.206291 11.016254 1.000000
20.070773 -19.465131 7.893571 1.000000
14.691765 9.983524 13.695446 2.000000
-9.071587 -9.618566 5.758255 0.000000
19.557093 -5.887929 11.428033 1.000000
-0.684308 -9.538532 14.543217 2.000000
7.648244 14.584719 9.230138 0.000000
3.953081 -19.538618 0.277703 1.000000
-3.641733 8.793638 6.752804 0.000000
-10.037830 20.975817 7.384687 2.000000
-21.479917 4.612455 2.797793 0.000000
-11.333888 2.578201 1.002195 1.000000
-3.865694 23.469915 14.746222 0.000000
-0.624151 14.876623 12.943909 0.000000
3.790480 8.698517 8.382004 2.000000
18.201264 1.210663 10.259566 1.000000
-16.005268 11.098362 6.633129 1.000000
-4.398019 -12.000409 5.250105 2.000000
-22.083378 6.660876 6.165871 0.000000
-13.168182 -2.743365 4.567760 1.000000
2.480072 21.729881 6.604800 1.000000
3.090882 -16.616675 13.458492 0.000000
16.766931 -5.749570 6.076667 0.000000
-12.045595 1.412743 1.369585 2.000000
-1.649471 8.310485 13.674630 0.000000
-14.835663 -21.188421 10.189689 1.000000
11.495818 -1.006899 9.627822 0.000000
5.821376 8.950685 9.668893 1.000000
22.511699 -3.072296 4.023517 0.000000
14.690201 -14.731030 5.485775 2.000000
-18.134665 12.368817 4.205142 1.000000
-9.239894 10.714499 4.721714 2.000000
-11.421086 2.248444 11.375908 2.000000
-19.390117 -19.778085 14.889742 2.000000
-3.020120 14.724952 2.535364 0.000000
-9.267469 23.591773 2.327671 2.000000
7.186319 -1.377275 11.809810 1.000000
-10.526318 -6.941410 8.159425 0.000000
-17.040071 22.335882 12.043074 0.000000
-23.153113 -1.725182 0.993019 1.000000
13.659516 -23.464942 7.180187 0.000000
-5.635821 4.008193 0.035810 2.000000
7.533690 -4.979370 9.008132 0.000000
19.805564 -12.128061 10.405171 0.000000
-2.166254 24.748749 1.555285 1.000000
-20.897495 16.224124 2.516472 2.000000
23.376197 0.888500 13.688221 2.000000
20.423169 -14.888614 5.218148 0.000000
6.052840 -24.451653 8.770126 0.000000
-16.763386 21.120823 10.990687 2.000000
10.656121 24.607481 1.469320 0.000000
17.638754 23.743248 2.575556 1.000000
-14.183509 -8.113150 13.192908 2.000000
-11.621899 -22.661210 14.654591 0.000000
20.025612 13.803593 3.512940 0.000000
1.119302 3.915537 10.941383 0.000000
-7.872963 19.023366 7.806700 0.000000
-3.991400 20.003691 12.893901 0.000000
17.301864 1.188870 9.516377 2.000000
15.776753 -18.669318 1.306768 1.000000
-3.309872 4.711413 0.963172 0.000000
-19.054782 -19.974150 4.943467 2.000000
-3.368851 -9.585296 1.833540 2.000000
-22.482080 19.264147 4.381705 0.000000
-1.852023 -11.672193 13.797627 0.000000
18.581963 -10.766147 0.061450 1.000000
-22.819479 -20.739014 5.631207 2.000000
-23.825897 21.198954 5.997756 1.000000
-24.499163 22.661967 4.760464 1.000000
15.335642 22.674507 10.078153 1.000000
-11.459953 -9.917225 2.825760 0.000000
-22.959169 18.458658 6.162379 1.000000
-23.024753 -24.652389 10.131618 0.000000
11.686151 24.022164 7.015500 0.000000
0.882169 -19.676058 1.960329 2.000000
-7.457505 19.597391 6.231391 2.000000
12.829094 -18.912385 2.265589 2.000000
19.631019 -13.516622 10.535104 0.000000
1.639542 23.297031 14.812179 0.000000
-24.498698 -2.826775 2.520953 2.000000
18.899619 11.775391 8.008248 0.000000
19.264852 -14.643440 9.829140 1.000000
22.859606 19.599484 3.673602 2.000000
16.339041 -5.582461 0.438593 2.000000
17.970261 13.785930 4.721870 0.000000
24.407225 -19.344301 3.940146 0.000000
15.335048 -22.178556 2.049107 0.000000
6.453162 -6.519873 12.988623 0.000000
20.405469 9.259485 6.233986 1.000000
0.760000 -6.443215 12.712409 0.000000
8.943486 -21.978198 0.639181 1.000000
18.469349 19.886592 9.146144 1.000000
11.557448 14.866225 2.602766 0.000000
14.595191 10.015115 7.776844 0.000000
13.180051 6.035686 8.558834 2.000000
10.508123 -2.424204 9.124528 0.000000
13.592005 24.240079 0.827335 1.000000
10.392633 -4.040643 13.397163 0.000000
-15.460961 -6.028796 7.458120 2.000000
-7.860718 7.871552 7.326511 2.000000
7.468739 -10.922245 7.496961 0.000000
-14.449790 -19.408203 2.763847 2.000000
8.559764 -10.906214 9.686916 1.000000
5.511286 5.285917 14.635069 1.000000
-9.800170 -6.150192 11.280787 1.000000
20.336680 24.326348 5.045342 1.000000
-11.103688 23.217146 6.099307 1.000000
3.659384 -14.101431 11.227713 2.000000
-4.315346 -19.586512 6.419778 2.000000
-7.232679 -18.981408 12.304242 0.000000
15.576725 -20.012733 0.588991 1.000000
24.498522 -21.402079 2.423825 0.000000
17.155946 -22.668903 6.429178 2.000000
17.146995 11.265550 6.404299 0.000000
0.048312 7.604448 3.698581 1.000000
-8.619411 -8.169515 14.383686 2.000000
21.698278 10.426709 9.214546 1.000000
16.810351 -22.609700 8.426757 1.000000
-14.728635 22.694506 6.002750 0.000000
21.643907 17.759524 6.102664 1.000000
20.929757 -18.012791 0.801849 0.000000
-22.339817 16.574415 3.870015 2.000000
