18.154947 -9.601326 7.814919 0.000000
-10.200381 5.466146 0.674122 1.000000
13.223309 20.286674 1.707489 0.000000
-7.741257 -7.022205 10.685962 2.000000
11.174988 -0.201135 11.034351 2.000000
-11.381887 19.193030 7.530287 1.000000
-8.496164 8.450191 5.073188 0.000000
21.290171 14.220244 9.942840 0.000000
-11.901752 -10.422072 3.346477 0.000000
-9.582138 21.602455 12.416693 2.000000
-16.736997 6.337914 11.288829 2.000000
21.024968 3.213000 6.225207 0.000000
20.708577 9.154035 6.480876 1.000000
11.028825 -10.716284 8.568291 0.000000
16.988877 17.867892 0.956697 0.000000
6.461450 15.623859 6.317138 0.000000
-14.192528 8.776568 12.904042 1.000000
13.854816 -21.222767 10.535561 1.000000
0.476747 -6.038299 0.632573 2.000000
18.972286 14.468517 13.233389 2.000000
-13.232101 17.806880 14.135751 0.000000
9.158022 -22.980320 2.262626 0.000000
-7.807252 -24.855103 9.545050 2.000000
19.938259 -12.715399 12.473482 0.000000
11.924448 5.183341 13.385048 0.000000
9.001872 -15.988973 13.411120 2.000000
1.093517 12.104365 4.755166 0.000000
23.228489 -14.221346 1.810276 0.000000
24.825644 7.891117 11.166998 1.000000
-6.340484 -16.811319 13.471433 0.000000
20.453661 -11.419784 10.233974 2.000000
-14.826035 -22.447593 0.883033 1.000000
5.587602 16.561415 13.634829 2.000000
15.747728 -19.816604 0.118075 2.000000
8.595139 4.820765 0.158390 0.000000
-18.232463 -9.662217 10.236872 2.000000
23.376222 11.901720 6.809962 0.000000
-20.515006 -3.743576 1.425598 1.000000
-6.046361 10.334876 0.917033 1.000000
11.370442 16.729476 1.507200 2.000000
7.673545 -19.090383 3.044044 1.000000
15.048225 4.286724 2.929610 0.000000
-2.592599 15.270648 3.910712 0.000000
-16.243714 -18.590761 11.455099 1.000000
10.204168 17.576669 9.061097 2.000000
7.202697 3.512658 14.048100 0.000000
3.987216 22.729568 0.118468 2.000000
-1.766916 19.611279 12.120366 2.000000
-6.376926 10.668832 11.045491 2.000000
-13.073200 21.491484 1.330058 1.000000
5.884405 1.239858 14.332866 2.000000
21.294537 23.288442 6.839510 2.000000
-7.862761 -2.106687 1.127347 1.000000
-16.220567 -3.495473 9.402015 0.000000
15.947017 -5.198108 7.006293 2.000000
-17.583800 -17.092254 10.800543 2.000000
-4.104085 -12.961807 8.029240 0.000000
-9.306766 9.381749 11.404934 2.000000
-13.407513 12.008984 0.838610 0.000000
18.805698 -6.572790 5.704062 2.000000
8.737446 16.311257 4.126540 0.000000
-9.042752 12.471005 14.731114 1.000000
-3.085319 -10.389736 9.957654 1.000000
22.734633 8.380541 10.070632 2.000000
-16.703606 -24.177249 7.710197 1.000000
15.716943 -16.125582 14.439575 1.000000
12.309296 -21.091431 4.451812 2.000000
11.442546 5.175308 6.815919 2.000000
-7.592182 -22.515863 6.656092 2.000000
-3.572923 17.185946 14.211479 1.000000
-18.103824 -10.456839 13.633007 0.000000
-11.568847 -24.733041 11.595774 1.000000
-13.823336 24.640809 8.592861 1.000000
3.433631 -20.178538 5.203476 0.000000
13.075266 7.513473 8.281566 1.000000
11.826940 -5.396472 3.926115 0.000000
22.182842 4.224555 4.665863 2.000000
-17.390317 20.033164 2.018642 0.000000
-3.499318 1.605469 6.668240 0.000000
-17.053151 16.747529 4.502480 1.000000
-14.262969 5.886269 9.856216 0.000000
-4.523106 8.937318 6.963230 1.000000
24.834016 6.172198 6.066070 2.000000
17.526080 3.065249 6.485201 0.000000
-12.772380 4.379292 11.603293 0.000000
2.272250 -20.078115 2.036730 0.000000
-8.806714 1.602945 5.959137 1.000000
8.370656 -22.305057 14.536038 1.000000
-6.625815 -22.164610 8.435319 0.000000
-3.373467 7.442735 13.472480 1.000000
-3.778171 -10.164145 8.422454 1.000000
-23.377027 16.991409 5.676603 2.000000
10.932985 23.381432 13.811456 1.000000
4.383333 -4.550806 12.660991 0.000000
17.937112 -20.475150 7.190934 0.000000
-13.948966 -16.328809 5.404724 2.000000
5.487918 -1.211122 12.671262 2.000000
14.644434 -4.552636 0.875057 1.000000
12.854827 10.627163 14.117732 1.000000
1.033722 -12.447807 6.539079 2.000000
-0.163852 -17.321326 8.593975 2.000000
-23.980114 -18.747855 7.220204 0.000000
-24.972912 -20.782000 6.531838 2.000000
22.565698 -23.599380 14.976190 0.000000
-22.220531 24.018010 4.343371 2.000000
-16.825235 23.803583 14.366152 0.000000
3.442676 3.522463 14.464328 0.000000
7.854203 4.748576 8.695165 0.000000
-24.777093 12.665127 12.607741 0.000000
1.087799 10.567855 10.832423 2.000000
20.718992 -23.091792 13.417515 1.000000
16.852550 -14.469088 7.966688 0.000000
10.890644 19.694357 6.511605 2.000000
-4.632196 7.443417 9.475764 2.000000
-7.374036 22.712948 6.132002 2.000000
-24.240445 -20.871673 8.491875 2.000000
-14.048399 11.636842 13.621989 0.000000
-7.865186 -0.740690 6.367775 0.000000
-22.320305 23.314924 2.354422 1.000000
17.713548 -10.146865 4.398585 1.000000
-7.355833 18.037544 3.247258 1.000000
-9.655774 -19.404698 3.075480 1.000000
-0.223981 -24.231181 12.130372 1.000000
-20.183499 21.841098 5.390530 1.000000
-16.877533 10.251661 13.565270 0.000000
7.163334 17.450943 0.171633 0.000000
14.653219 -20.386830 8.516868 2.000000
5.021449 8.329333 9.910114 1.000000
5.662575 -20.347029 11.249199 2.000000
-21.110246 -14.353200 14.814152 0.000000
-12.399787 -4.039670 7.336159 2.000000
17.647934 17.320248 7.319838 0.000000
-1.831063 14.871081 6.865942 2.000000
-23.643912 -16.054184 4.784892 1.000000
-1.337383 23.228024 13.627012 0.000000
15.907051 19.874188 4.115981 0.000000
9.057916 -8.131348 14.715364 1.000000
-6.556513 3.209633 14.503022 2.000000
-8.945266 -19.228008 4.302352 1.000000
2.364850 14.437326 2.542009 1.000000
-24.356064 13.432164 4.419783 1.000000
-15.016855 5.825077 3.420301 0.000000
12.125188 11.315852 2.366462 1.000000
-12.344316 -17.555538 7.748339 2.000000
-10.906980 21.990877 13.416652 1.000000
-6.388585 8.916669 7.875911 0.000000
-7.867961 11.836250 13.109410 1.000000
13.646257 0.238884 9.259554 0.000000
-4.521708 -14.407044 5.687434 0.000000
13.872631 9.480178 5.212094 1.000000
-15.882166 -2.883036 9.657206 0.000000
-11.749588 -17.594460 14.602820 2.000000
4.660826 -12.966164 4.667751 0.000000
-24.397411 -22.116614 14.400434 0.000000
-14.132273 -0.672899 6.165641 2.000000
14.591109 17.932730 6.628338 1.000000
-16.703028 22.918340 5.102417 0.000000
18.774504 7.074524 6.315383 0.000000
8.656218 -0.474038 2.662443 2.000000
-16.215892 18.367330 2.473104 1.000000
7.620017 -10.471884 12.750005 2.000000
-16.421061 -4.122531 3.752658 0.000000
-23.497607 2.278061 6.046711 0.000000
-16.483293 -10.603378 8.676229 1.000000
8.297616 17.121870 8.286657 1.000000
-21.047995 13.042721 5.763867 2.000000
-23.977389 -10.568742 12.472762 1.000000
15.522272 2.387412 9.136326 1.000000
4.045604 -10.986118 14.557443 2.000000
-17.215159 2.398001 3.353529 0.000000
-13.621320 9.396569 4.182327 2.000000
-18.356962 -16.851418 10.332618 2.000000
14.510337 -17.605205 2.547145 2.000000
16.663810 9.532425 5.851284 1.000000
-16.135678 8.309083 5.451081 0.000000
-10.286524 -3.833399 4.688289 0.000000
-24.269600 12.498069 9.394142 0.000000
16.855614 -11.568842 5.899492 2.000000
24.194077 1.122316 7.880433 2.000000
-11.560888 22.649946 12.477614 0.000000
-24.252290 -13.224833 2.676851 2.000000
17.967340 -1.625025 5.216038 2.000000
22.903434 -23.124974 2.419346 2.000000
-1.109275 -22.849603 1.847165 1.000000
6.853621 18.655800 10.753840 2.000000
16.075156 -13.584286 7.341092 1.000000
12.425647 14.638089 1.270277 0.000000
23.164814 -15.377554 4.523486 2.000000
0.309426 20.405892 11.276890 2.000000
15.000591 -14.282777 5.966212 1.000000
-4.467584 -9.221683 10.380855 0.000000
0.813471 -20.659704 13.600159 2.000000
-2.019222 -15.028031 7.007998 0.000000
-10.296637 9.263438 11.578628 0.000000
13.924315 8.392408 1.836369 0.000000
-4.898943 12.787087 3.716085 2.000000
-12.971515 18.505074 7.092824 2.000000
-9.694254 14.736514 5.964887 2.000000
10.922966 -2.446801 0.987869 0.000000
-13.377777 -24.346188 14.152617 0.000000
-3.023716 -22.456793 6.154826 2.000000
5.082363 12.507933 6.785915 0.000000
-21.254388 -0.479669 10.904321 0.000000
19.701747 -7.847367 6.685743 1.000000
3.628157 8.791513 8.642297 2.000000
-1.181285 9.031747 10.397543 0.000000
4.681079 7.658211 3.971935 1.000000
5.868938 13.913854 6.881196 0.000000
-17.297827 21.716681 12.564485 2.000000
8.969923 -22.103019 8.090255 0.000000
0.444209 0.838086 9.546000 2.000000
-14.805375 -19.805874 4.716820 0.000000
17.983817 13.306843 5.779759 2.000000
2.563165 19.403866 11.755369 1.000000
-2.731255 13.213283 9.668836 0.000000
23.129087 -22.027994 3.582382 0.000000
-8.722721 -17.550572 9.761378 0.000000
17.053555 20.345693 11.780764 2.000000
20.066274 17.169455 5.891643 1.000000
-23.331829 -9.326596 1.932295 1.000000
19.908250 19.017531 6.683989 1.000000
16.811292 -16.346673 10.372234 0.000000
-16.296893 -23.133404 8.543858 2.000000
7.203597 -8.783378 2.006749 2.000000
-5.582750 -17.068033 2.619608 2.000000
-14.959888 -5.328237 5.362215 2.000000
6.360962 -19.104930 6.487131 2.000000
-20.126188 8.102779 7.510211 0.000000
8.498058 -11.387867 3.585554 1.000000
3.086399 19.396945 12.888454 0.000000
-7.442211 -3.575302 4.053900 1.000000
14.924973 -10.268009 13.287134 2.000000
-20.549312 13.894520 2.903049 0.000000
-15.507433 -0.356165 6.279824 2.000000
1.333318 22.664605 0.138032 2.000000
14.966661 10.065399 8.672399 2.000000
-3.925698 3.830802 5.472113 1.000000
-5.673902 -7.342433 14.702474 0.000000
-13.870584 -8.085028 10.224429 0.000000
4.824969 -6.636673 9.549173 0.000000
-20.993518 23.433077 14.119625 1.000000
-8.691670 22.553642 3.027934 2.000000
-2.357592 -21.000930 12.789454 1.000000
-15.785884 -21.120710 2.646327 1.000000
6.751374 22.141564 0.714628 0.000000
-5.742986 -11.185659 9.813460 2.000000
-6.213079 -8.581520 13.052991 0.000000
-15.024156 12.251219 5.975321 1.000000
17.229684 17.759691 8.896566 1.000000
-10.267752 -6.717297 14.493861 1.000000
-12.246070 -14.970040 2.951859 2.000000
20.444306 8.341945 13.416244 0.000000
15.007915 16.989012 6.855445 2.000000
21.390194 -3.459730 3.880804 0.000000
-17.841746 8.119135 8.931183 0.000000
22.880562 -1.935978 5.147173 2.000000
3.266429 23.903318 5.843582 0.000000
-23.255109 6.180979 7.171472 1.000000
-11.984693 -18.080888 13.889763 2.000000
-18.332181 -9.339155 12.317709 0.000000
-8.793179 -23.206489 0.852749 1.000000
-6.467454 -10.727556 7.102179 1.000000
-9.028535 -21.031236 11.935284 1.000000
4.486985 -2.477376 12.154382 2.000000
-21.211418 1.224562 11.549564 0.000000
-24.400692 -12.717053 13.545689 2.000000
-3.372733 -23.704058 10.141492 0.000000
-12.158259 12.393016 0.053114 1.000000
-7.805452 -2.536646 9.300047 0.000000
-18.939807 3.340718 8.856901 0.000000
-23.113608 21.060804 1.804371 1.000000
15.183069 9.597476 10.600557 0.000000
12.970154 -18.782238 4.996071 0.000000
-14.039469 -22.456096 13.900612 0.000000
-5.813473 -6.083832 1.000385 1.000000
-4.578841 -5.361292 1.823678 0.000000
22.946193 23.702171 13.544369 2.000000
22.091024 5.777487 9.818504 0.000000
19.215434 12.397636 8.240422 0.000000
12.904941 1.159822 14.447102 0.000000
20.624909 -4.370800 11.452731 1.000000
-19.016203 14.244030 9.397734 0.000000
-14.195632 18.063091 6.200789 2.000000
-9.968389 20.366211 4.985260 1.000000
-4.943947 -16.180902 11.359897 2.000000
-2.812170 15.995219 12.902847 0.000000
5.811942 -1.723657 14.103854 2.000000
-15.436518 -0.417693 14.732809 0.000000
15.664188 -24.942526 11.179199 1.000000
18.773435 13.487109 3.604790 0.000000
-20.164315 -5.083240 13.096624 0.000000
20.793109 6.015148 7.614557 0.000000
-1.346100 -21.211755 12.629661 2.000000
13.494776 7.576181 12.695765 1.000000
-21.661216 20.288321 0.266667 1.000000
-21.519400 6.089627 4.668492 1.000000
24.864066 14.261134 7.042605 0.000000
-11.582669 -24.374446 5.332066 1.000000
4.618152 -3.337457 3.458647 1.000000
-20.515531 -16.433769 8.082439 2.000000
7.321485 0.700579 3.724197 0.000000
-24.028360 15.391262 3.917429 1.000000
10.103199 4.909029 0.221298 2.000000
-15.474994 -10.014873 14.982427 2.000000
-5.742352 -5.237232 1.894097 2.000000
13.412211 -16.695885 5.633200 1.000000
11.005253 -3.759004 9.384090 0.000000
22.964517 -22.923112 4.870163 1.000000
-3.198101 -24.679086 13.798998 2.000000
14.628468 -19.540198 2.712398 1.000000
22.758908 7.800801 9.751282 0.000000
23.401859 15.640134 14.975166 1.000000
-2.124217 -6.692380 14.273733 2.000000
-5.098448 -6.267630 8.803401 1.000000
24.166641 -13.451148 8.421800 2.000000
10.941497 20.109492 6.015361 0.000000
-14.762555 -2.448805 12.643304 0.000000
1.914464 23.950468 12.509219 2.000000
-23.064947 9.034531 13.200531 1.000000
8.542847 18.223608 14.689164 2.000000
0.789687 -24.246380 9.233358 1.000000
-19.885817 20.545751 3.940508 2.000000
-23.491313 20.257788 14.103820 2.000000
-20.544550 12.858579 10.453703 2.000000
21.353975 -23.518367 0.227800 1.000000
1.717820 -15.334075 2.398360 0.000000
-14.171573 -24.782629 9.139528 1.000000
-17.951252 10.906031 9.266917 2.000000
-1.909129 -14.348239 10.758461 0.000000
-23.987787 -6.496102 3.507329 1.000000
-2.511686 -9.744507 11.444399 1.000000
7.777151 4.662986 2.305791 1.000000
14.530432 -17.488911 13.569932 1.000000
-6.975202 -12.614608 14.634019 0.000000
23.985314 -19.522985 10.076003 0.000000
6.492175 6.552121 13.979749 0.000000
-5.368031 -2.703594 14.492045 1.000000
-10.337862 -0.606146 13.279913 2.000000
-15.715259 -11.863328 2.803553 0.000000
-1.110441 -7.454743 12.277303 0.000000
24.899853 -7.202655 12.761422 2.000000
13.701736 5.339803 9.652213 2.000000
-12.095363 14.605301 12.468263 1.000000
-6.375088 9.739830 1.732569 0.000000
3.360732 20.996723 13.679661 0.000000
12.170520 20.709718 6.869904 0.000000
-15.534465 -20.375866 7.729691 1.000000
-20.543380 -24.991746 2.731055 0.000000
12.815187 -21.678577 0.794419 2.000000
-21.746610 8.405750 12.032826 2.000000
-20.757744 -20.090757 10.228804 0.000000
20.781568 16.960183 3.453100 2.000000
14.026306 7.037537 13.312210 2.000000
6.582318 -17.050217 7.238975 0.000000
2.248369 14.891535 14.488160 0.000000
-12.123001 5.354154 1.680788 0.000000
2.537257 13.874881 1.346491 0.000000
17.929115 11.236570 11.167779 1.000000
21.091332 -12.366783 12.505083 1.000000
-14.181825 6.384043 13.361628 2.000000
21.997952 21.100598 13.989043 0.000000
-19.138444 -11.383777 13.435625 0.000000
5.723003 -3.917952 4.610761 2.000000
2.781545 3.420650 4.404561 0.000000
-18.638782 -20.101197 1.588154 1.000000
3.673805 4.094437 4.112872 2.000000
24.818829 22.224259 4.103085 0.000000
-24.026959 -5.167001 4.112228 2.000000
-8.859894 -21.722633 13.652810 1.000000
-12.040573 1.606451 7.981859 1.000000
3.386001 20.654367 4.112516 0.000000
-12.433523 -3.571835 6.203772 0.000000
24.424311 -4.225939 7.426929 0.000000
-19.444046 -16.912214 13.047999 0.000000
21.171825 22.374619 6.450200 2.000000
-10.794433 -11.795235 13.192921 1.000000
-13.129893 -0.509922 12.701656 1.000000
-8.957292 12.230476 14.515576 0.000000
-17.114940 -14.528983 4.990279 0.000000
-1.028297 4.108181 10.089477 2.000000
-1.078990 -11.114798 3.754149 0.000000
5.839611 13.430535 10.459983 0.000000
14.425769 -16.476652 2.360279 1.000000
17.134288 -6.366504 8.486494 2.000000
22.538095 3.996689 14.948202 0.000000
-10.025907 -23.822271 8.862633 1.000000
15.672467 -21.148503 11.423377 0.000000
-11.164810 3.018487 11.976120 0.000000
14.116827 -9.078254 13.035862 2.000000
-0.361597 -22.435529 11.480411 2.000000
-6.159622 2.402654 10.146739 2.000000
1.850043 14.604218 8.362715 0.000000
-20.897072 -20.043743 12.849414 1.000000
13.442422 4.579778 10.627613 0.000000
16.746677 -5.803669 14.969570 2.000000
21.593693 18.515479 13.748643 0.000000
-17.931678 2.487897 3.929487 2.000000
-14.661664 -8.629599 5.628753 0.000000
0.981116 -12.654393 7.727009 0.000000
-7.406729 8.406874 5.904874 0.000000
-2.091542 -10.959218 13.346248 0.000000
7.388258 5.947250 7.130285 0.000000
-10.147417 -15.568099 3.636752 0.000000
24.529396 -12.355171 9.428635 1.000000
-9.032645 6.104916 0.948442 0.000000
-2.652639 -13.494202 8.032600 2.000000
-20.913314 -4.775555 7.433487 1.000000
7.695786 -7.006811 4.190688 2.000000
-21.555301 14.285847 9.720800 1.000000
16.084266 24.873879 0.587632 1.000000
8.271609 -16.720549 12.733164 1.000000
-23.565119 22.034733 0.596573 2.000000
11.222158 -18.145006 2.167011 2.000000
-20.616494 8.041805 11.968226 0.000000
24.800364 -17.870620 10.579709 1.000000
-11.358436 12.691453 14.626352 2.000000
-10.600954 -19.010224 14.019163 1.000000
-1.419776 -13.539385 10.086996 1.000000
0.503204 -6.702332 12.633890 0.000000
24.801919 -15.989344 4.852709 2.000000
-17.293909 21.984817 13.979553 0.000000
-0.502231 -23.283263 4.434830 2.000000
-7.108196 12.063930 3.564003 0.000000
18.868236 -6.226771 4.084810 0.000000
-9.986394 -24.238928 11.474510 2.000000
22.320098 14.692309 3.850638 2.000000
22.723424 13.839659 9.561981 1.000000
21.954579 -21.867751 1.725071 0.000000
-0.211319 2.749054 0.516686 1.000000
-7.673624 17.560680 1.950639 1.000000
18.511265 -24.079402 3.215825 2.000000
-16.091684 16.260836 9.328835 2.000000
0.397004 5.161971 8.212016 2.000000
-20.053044 11.793381 10.516141 0.000000
3.157514 8.491401 1.716395 0.000000
15.324300 -13.919772 13.396058 2.000000
-15.077242 0.866297 2.616037 1.000000
17.418870 -2.726378 8.890487 2.000000
-3.749046 19.756098 1.561232 0.000000
10.973513 19.332647 5.877182 2.000000
-21.118287 -21.851224 3.495514 2.000000
-9.717758 0.783683 12.602132 2.000000
-13.341778 -14.714155 0.876901 2.000000
-2.146733 6.846414 7.951195 2.000000
-23.913630 13.409595 1.764069 1.000000
11.971014 23.661653 7.428079 0.000000
-19.089496 16.978385 12.647548 0.000000
4.910733 -6.210181 7.962229 0.000000
-1.344849 -4.612091 8.512291 1.000000
24.115895 14.042755 8.747173 2.000000
10.204566 15.619478 0.666866 0.000000
24.187045 3.235541 6.970565 0.000000
-8.576991 3.676512 2.095262 2.000000
22.312224 -9.198729 4.046323 1.000000
1.400711 6.463760 3.186081 1.000000
12.988201 -13.596643 8.536062 1.000000
-15.494876 -16.587120 14.066238 1.000000
-17.217672 7.158224 14.901955 1.000000
-2.905756 15.521639 1.789585 2.000000
-5.276026 -10.897889 12.394549 1.000000
-20.071496 11.168381 14.475838 2.000000
-24.806002 -19.368709 11.385575 1.000000
-18.057366 19.920861 6.248333 0.000000
18.384351 -21.163404 12.982955 1.000000
-3.591471 17.635124 2.303529 2.000000
-10.748658 17.563447 10.613478 1.000000
-11.064615 11.811968 12.885798 1.000000
21.128758 6.210239 10.644049 0.000000
1.834635 6.175906 7.807571 1.000000
-10.143055 -5.241815 13.274443 0.000000
13.567420 -3.640205 11.686145 2.000000
-2.334501 14.272565 5.508371 0.000000
-24.258364 -21.205716 4.906013 0.000000
13.863793 -6.210195 13.409164 0.000000
5.505076 24.573805 4.477857 0.000000
-12.127831 -15.452786 11.057232 0.000000
20.720933 -21.461050 7.713777 2.000000
14.921080 4.049591 9.210583 1.000000
-19.260411 -3.949793 13.113082 0.000000
18.422741 -20.868954 13.383316 0.000000
0.484258 -12.396414 2.945836 1.000000
-9.060619 -5.548852 5.796809 2.000000
19.212572 20.661013 6.653329 0.000000
8.711820 -7.722586 5.915543 1.000000
2.121071 -10.541536 12.766717 0.000000
-18.379790 7.882600 9.808556 1.000000
-11.933570 -3.395129 0.533897 1.000000
-24.906873 -14.573734 1.695317 0.000000
1.609309 18.378694 13.644466 0.000000
-12.913231 -7.806276 4.373329 2.000000
-15.800681 -15.997125 6.268382 1.000000
-4.812700 -15.412629 14.376174 0.000000
-21.424432 9.110926 2.806056 0.000000
3.689243 2.375840 0.185680 0.000000
22.905312 10.197707 7.174249 2.000000
-21.730559 18.136357 13.092045 2.000000
1.853193 -19.673970 12.504800 0.000000
-15.829900 -2.806604 12.473884 0.000000
16.747003 -4.690575 12.952319 0.000000
-22.576827 -16.337382 14.469302 0.000000
9.815331 11.795270 4.261946 1.000000
-11.252676 -20.909858 0.254752 0.000000
21.848389 5.165302 5.549442 2.000000
21.071858 -15.593101 14.378298 1.000000
19.179000 -19.800967 11.036271 2.000000
0.803541 13.005014 4.128829 1.000000
11.405953 -24.427417 9.881893 1.000000
-15.113634 11.180246 13.472387 2.000000
-6.352688 -9.199530 14.248220 1.000000
5.077729 -5.072178 0.263719 0.000000
17.888286 8.873764 14.745457 2.000000
-0.327173 -12.756458 3.465766 1.000000
-16.879306 3.470472 8.231919 1.000000
6.782135 8.826473 8.499625 0.000000
-20.413192 -8.423798 4.678438 2.000000
13.523215 15.995516 13.579779 2.000000
1.694746 -16.505257 3.182645 1.000000
-11.313230 9.598271 2.340756 1.000000
8.156487 17.150446 10.996227 0.000000
-12.591257 -15.763376 3.603369 0.000000
3.332146 1.114230 7.928081 1.000000
-20.348536 -13.294951 9.801244 1.000000
-11.337201 -4.506368 5.097341 0.000000
-18.893269 -15.957887 7.417391 1.000000
-6.575967 1.219715 8.538521 2.000000
4.402991 -13.518981 8.887139 0.000000
-7.480142 -1.063195 7.780820 0.000000
8.654421 -13.752983 3.412999 0.000000
-2.563290 18.432088 13.933882 2.000000
14.307319 -12.345738 3.721614 2.000000
-23.222349 18.360110 8.574258 0.000000
0.650449 -16.561774 4.658844 1.000000
-23.258420 11.698758 13.420784 0.000000
-2.756840 -17.982827 10.958869 0.000000
18.750769 11.975718 10.240085 2.000000
-22.357455 -21.012019 10.847832 0.000000
15.384284 4.864819 2.843592 1.000000
23.298094 -19.526442 6.801854 0.000000
12.188661 12.385415 11.209230 0.000000
3.656163 15.460325 14.386539 2.000000
23.159132 0.470361 13.497522 0.000000
-15.454905 -23.266503 5.685561 0.000000
-3.909109 5.638515 12.822095 1.000000
-10.485085 -24.416664 13.576087 1.000000
-11.252144 1.370477 5.085934 0.000000
-9.042493 11.019656 7.153388 1.000000
10.093633 6.634153 11.013357 1.000000
6.402402 3.460597 1.976569 1.000000
7.304661 -6.193604 10.892535 2.000000
-2.906302 24.780003 1.619829 1.000000
-22.711956 13.082412 6.255442 1.000000
-21.528067 19.759444 3.496940 2.000000
15.830329 17.329899 11.139418 1.000000
13.798848 7.824297 8.632677 0.000000
-0.535854 19.536672 10.207869 0.000000
-19.550848 6.194660 7.040332 2.000000
12.768502 18.315315 12.975869 1.000000
21.623660 -1.776924 10.201540 2.000000
6.063934 -18.885757 12.578533 0.000000
-16.168485 -12.308346 11.529811 1.000000
23.565251 -3.059732 1.569969 2.000000
17.663984 17.429112 11.906642 0.000000
12.338735 -11.012685 2.151544 2.000000
-3.556449 -5.758814 14.330113 0.000000
16.823399 19.353972 5.187371 1.000000
16.498617 17.988431 6.322721 0.000000
12.070573 -1.013754 3.878796 0.000000
9.657182 8.784879 4.216402 1.000000
-19.268673 24.698187 13.030953 1.000000
17.645004 10.346250 1.431897 2.000000
18.936776 5.000468 5.861970 1.000000
-9.281313 -9.315672 11.011383 1.000000
9.426124 -9.443148 14.780608 0.000000
19.050658 -8.376089 4.432876 0.000000
14.240728 -17.042859 8.858818 1.000000
-5.133518 3.789348 11.751675 1.000000
2.027635 2.013760 4.016396 1.000000
22.984190 -6.434146 12.337236 1.000000
-0.830035 10.402653 11.913261 0.000000
11.716209 23.316591 3.293979 0.000000
-1.385432 9.500131 14.647760 1.000000
3.097787 -11.054522 8.701501 1.000000
-24.107214 -22.490131 3.298533 1.000000
23.937963 -15.607469 3.955080 0.000000
12.734524 -3.187420 10.252552 0.000000
17.581132 6.171383 13.458982 0.000000
7.580071 3.049444 10.735346 2.000000
22.804887 -15.916274 8.425719 2.000000
-23.900577 8.269070 3.751209 1.000000
-8.756774 -14.957846 7.798959 0.000000
-4.722029 2.506648 5.296190 0.000000
-1.278451 -2.636792 5.906014 2.000000
2.997721 -1.023339 13.055985 1.000000
-20.322444 22.616512 10.273717 0.000000
-8.658701 -2.424819 12.474246 0.000000
-2.504436 24.668796 12.745311 2.000000
0.254498 -5.808683 6.559366 0.000000
7.134199 18.619061 2.625079 0.000000
-3.424816 18.652140 8.545847 2.000000
-24.984225 -8.371715 3.181184 0.000000
-14.567783 -24.609353 7.593600 1.000000
15.023818 -10.545081 6.580418 2.000000
17.704101 -23.502699 2.901099 0.000000
-4.243595 7.323833 2.469925 1.000000
-14.437190 19.976067 12.030988 0.000000
-13.219225 -24.568746 12.384523 0.000000
19.391516 -9.168160 10.533457 1.000000
-18.023072 -8.146020 14.265530 2.000000
11.643289 22.292421 11.440933 1.000000
-14.206869 -14.655511 6.105678 1.000000
-6.425460 24.998589 13.410147 1.000000
21.965937 24.460195 11.125222 2.000000
-13.848512 -17.507467 10.739412 0.000000
-14.260817 3.629903 8.554434 2.000000
5.998053 -19.230183 4.949113 1.000000
-20.030472 17.489258 3.161203 0.000000
-10.970696 8.612943 6.746643 0.000000
8.416937 -16.564502 1.910866 0.000000
22.993208 -15.925610 9.754674 0.000000
7.320658 -16.101645 5.952942 2.000000
18.900819 -1.720185 2.319972 2.000000
6.330807 -8.893563 2.581195 1.000000
22.573604 -4.490281 5.931804 0.000000
21.373326 -7.183562 4.293652 1.000000
21.115324 21.348802 4.454135 2.000000
-15.574585 12.670719 12.129197 2.000000
-14.864137 4.632490 7.680662 1.000000
0.043440 0.950731 4.716391 2.000000
20.114346 -16.964562 12.451999 0.000000
12.663724 18.415885 12.260871 0.000000
4.146922 -11.679729 4.234228 0.000000
1.445280 23.064212 7.339534 0.000000
21.399822 -14.764920 5.092410 0.000000
5.794288 2.916445 5.286895 0.000000
24.440891 -2.759500 7.594658 1.000000
-9.835395 7.332554 6.032911 1.000000
0.052737 12.794322 4.757875 0.000000
-20.170346 21.295772 11.568596 0.000000
7.063733 12.258282 9.502829 2.000000
8.578405 0.349607 7.716264 1.000000
-0.216713 9.182898 12.990826 1.000000
10.352105 22.938719 11.676983 0.000000
-15.279695 21.970161 6.026811 0.000000
-5.544026 18.820923 1.498966 1.000000
18.294226 0.263879 8.925623 2.000000
-23.116459 23.765185 11.581801 0.000000
24.127278 -22.028451 1.895449 1.000000
-11.570609 1.580838 13.328836 1.000000
23.316346 -18.980911 11.366599 1.000000
-14.858501 21.533199 11.781705 2.000000
-6.124237 -17.939157 12.382333 0.000000
-22.796689 -18.336666 7.299179 1.000000
5.247068 20.390193 5.121247 1.000000
0.102621 20.160535 8.972063 1.000000
2.982345 -11.831381 14.970366 1.000000
23.140037 -12.699297 7.858501 0.000000
6.628110 -7.567855 11.420444 1.000000
22.888165 13.057299 2.687105 0.000000
-2.180033 -5.337746 3.496864 1.000000
19.308076 8.642044 9.428974 2.000000
-2.772535 20.350898 4.115100 0.000000
-0.361181 -23.663397 9.230540 1.000000
-18.537334 -20.721894 1.697210 1.000000
5.446227 -15.550268 5.794339 1.000000
12.120508 -22.982360 3.978175 2.000000
6.243972 -8.220687 14.746112 2.000000
17.573514 -17.986947 6.593971 1.000000
14.574116 4.603066 13.646333 1.000000
20.037041 -8.637758 6.478440 2.000000
0.293749 -24.083055 13.819766 0.000000
12.833227 6.751672 12.936450 2.000000
12.946623 2.149434 11.215552 2.000000
16.319296 -21.849533 13.039853 0.000000
-11.214923 -9.643676 13.479741 2.000000
-5.102380 -5.297396 8.705758 2.000000
10.771721 18.138783 5.578461 2.000000
-8.941060 -5.453184 3.110637 0.000000
-7.245101 12.813186 6.421720 2.000000
15.514404 -16.660934 13.339572 1.000000
-16.415555 -6.819997 8.133869 0.000000
-24.323938 -24.765870 0.685292 1.000000
4.125794 -4.136273 4.222544 0.000000
17.233830 -4.679303 3.435554 0.000000
-11.972736 19.542321 14.546092 2.000000
19.891052 -14.824679 10.913771 1.000000
-17.427971 14.131922 6.537142 2.000000
-18.646665 -9.111922 10.086029 1.000000
-8.110846 10.561842 10.816362 0.000000
-7.606924 20.658374 13.913693 2.000000
-14.611555 -15.406585 8.648201 2.000000
9.130706 23.558288 8.287173 1.000000
14.836748 24.175825 6.709838 2.000000
-1.290561 8.033277 1.839449 2.000000
-15.153039 13.136775 11.028046 0.000000
18.732429 2.417278 8.223010 2.000000
19.124933 8.106202 2.697445 2.000000
-12.658202 -19.950088 2.126389 2.000000
10.906503 -13.933835 6.236197 2.000000
-11.728919 14.977966 7.163345 0.000000
6.177454 23.547972 12.223508 0.000000
2.094724 -13.729434 1.159923 0.000000
-23.891681 -6.325264 9.435209 0.000000
-5.257148 6.843392 8.970320 0.000000
-19.408044 17.102189 6.009568 0.000000
0.399794 -9.986857 9.053090 1.000000
-1.948576 24.492499 13.566910 0.000000
0.395508 0.224663 4.899554 0.000000
16.339354 8.392050 9.376725 0.000000
-23.810184 2.084321 2.972107 0.000000
-17.267191 -23.780105 11.038821 2.000000
0.024335 12.604637 7.955186 0.000000
12.720848 -22.728627 1.671722 0.000000
-3.457107 -14.658883 8.668886 2.000000
-22.551914 -2.489829 8.407299 0.000000
-21.192149 -6.025041 4.684623 2.000000
-21.419379 20.804903 14.927616 0.000000
-3.408958 7.673687 12.952386 0.000000
-18.522255 23.968232 8.966844 2.000000
17.093827 1.321258 2.034635 1.000000
12.322562 2.314868 2.659815 0.000000
-10.457029 -1.223660 13.753018 2.000000
-5.946508 -14.916303 14.637200 1.000000
-23.158718 10.501052 9.395861 2.000000
-21.890309 23.047181 4.365204 1.000000
6.400099 3.188034 10.485094 2.000000
-10.277024 -14.212595 5.993082 0.000000
21.646244 13.431384 3.608000 0.000000
-1.124711 22.368988 11.865086 1.000000
-12.213499 -21.137085 6.269402 1.000000
-15.086449 16.513375 9.447776 0.000000
1.347488 24.755271 4.596460 2.000000
-22.653074 -1.106157 0.914522 2.000000
-13.396921 -3.771535 7.430879 1.000000
6.115856 11.223303 11.791799 2.000000
-0.975512 -7.076376 0.761457 1.000000
-18.606103 21.658839 10.552328 2.000000
6.851736 16.715035 14.508553 0.000000
-1.706471 17.844074 11.972621 0.000000
13.409174 -20.158885 2.334254 2.000000
8.404558 21.541511 12.456504 0.000000
-9.420067 -18.164509 14.747177 2.000000
21.447088 0.133619 5.207545 2.000000
-24.496681 5.027746 8.104274 0.000000
-14.844279 14.979795 8.935155 2.000000
10.496411 18.757852 5.891253 0.000000
-22.252656 -7.212541 7.616135 2.000000
22.996774 17.347510 2.250242 2.000000
22.818600 -24.095495 8.907324 0.000000
-6.303148 -23.011581 12.756815 0.000000
-10.731859 -23.537593 3.369312 1.000000
16.402415 -20.267363 13.772126 2.000000
-5.295404 2.809381 8.877521 2.000000
-15.852185 23.851539 6.096300 1.000000
-19.510097 0.004653 9.229409 1.000000
-8.620190 -24.262201 11.660106 0.000000
-18.516677 -23.843310 14.218293 2.000000
12.640907 -18.509117 11.411013 2.000000
6.291579 -17.765780 0.095602 0.000000
5.986975 -16.381469 7.092734 0.000000
20.551775 0.407843 11.938942 2.000000
-11.226412 -5.358980 2.000547 2.000000
-4.300392 -15.803782 9.394923 2.000000
23.011130 3.518886 11.161862 1.000000
-17.294413 16.720983 1.676753 2.000000
-16.839062 -4.507442 0.614992 1.000000
13.086742 -0.567174 4.562286 1.000000
-4.342378 -18.725425 7.663440 1.000000
22.361882 -1.018241 9.646054 1.000000
18.988994 -1.134187 3.173073 0.000000
9.373026 -24.296584 11.484871 0.000000
-9.407240 0.894146 13.725797 0.000000
-11.867519 14.558827 2.381659 0.000000
-16.787132 10.012268 3.365597 2.000000
11.189331 4.898288 14.125201 0.000000
24.089206 21.477429 6.230484 2.000000
-19.559759 -1.858127 7.642952 0.000000
-7.338899 1.110221 12.955693 2.000000
6.271157 -1.549666 3.328894 2.000000
4.158499 -7.957630 7.854548 1.000000
-13.416058 -17.417384 6.245455 2.000000
23.862584 4.829816 13.513447 0.000000
2.212894 -5.525008 7.696285 0.000000
15.037212 -6.427860 11.095122 1.000000
-22.146251 13.939999 9.691282 2.000000
24.756927 -9.804079 13.116711 0.000000
8.822267 19.158621 11.364769 2.000000
8.233504 -7.001463 2.651307 0.000000
-13.188172 20.133277 1.494686 0.000000
14.710426 -22.930674 11.480839 1.000000
24.443163 -11.436280 1.539216 1.000000
3.583563 -13.406850 3.213290 0.000000
-4.059405 -13.475027 14.263815 2.000000
-24.631221 -11.657964 9.312963 1.000000
5.611730 -0.910317 2.493672 1.000000
2.532844 -17.833049 10.063413 0.000000
8.435790 0.503165 5.721776 0.000000
-21.306618 9.575307 4.971404 0.000000
15.282219 -4.866612 13.884193 2.000000
-10.392152 7.027562 12.258103 1.000000
-2.360801 7.471856 13.598848 2.000000
2.440371 -12.379200 13.805220 0.000000
-18.883618 -19.365678 0.521732 2.000000
-20.950798 -0.241415 2.863719 1.000000
24.904805 10.136045 9.703643 0.000000
-19.977422 3.425417 1.186592 1.000000
-1.005054 22.765769 8.206751 2.000000
-14.382509 6.742389 13.095700 1.000000
5.806712 7.458262 2.064899 0.000000
9.703263 -5.060272 14.553412 1.000000
12.585005 -15.494166 7.505391 2.000000
-5.419823 19.729813 8.828811 2.000000
-1.037796 2.264413 13.614648 0.000000
-0.090489 -5.257719 10.672198 0.000000
-17.778253 24.680547 3.012180 0.000000
-17.259461 19.454115 13.109489 1.000000
-13.617819 14.342685 13.392601 0.000000
-4.452591 17.315824 0.086056 0.000000
5.383052 -24.347390 6.743187 2.000000
0.116349 -8.625796 9.453863 0.000000
-2.785013 -12.884282 2.697051 1.000000
-7.539304 12.800894 7.200223 2.000000
-19.568084 6.147333 13.566517 1.000000
-17.080919 -24.905226 5.251413 1.000000
-21.169597 6.959220 7.572159 0.000000
18.234864 -8.977849 0.347529 0.000000
4.154356 -7.800608 8.397808 2.000000
1.252005 -8.297636 2.373808 1.000000
12.222294 7.438087 4.344057 0.000000
2.065055 -3.301151 6.431851 1.000000
-23.540635 -9.692054 5.897536 0.000000
9.981360 0.679549 8.520402 2.000000
-22.855625 -3.386336 9.261582 0.000000
4.655239 -6.231790 0.136132 1.000000
12.200768 -11.077808 7.361314 2.000000
5.677558 5.419501 8.191517 0.000000
8.707229 -12.343567 12.034138 0.000000
-11.100797 24.529325 6.057639 0.000000
6.904391 -23.778593 8.798269 1.000000
3.135554 5.561954 3.812506 1.000000
-23.175921 -12.918629 10.893259 1.000000
-11.481206 -12.498801 0.931873 0.000000
-21.177347 -1.210958 6.704178 0.000000
-4.186964 15.113705 7.389936 1.000000
21.329969 13.816686 9.717014 1.000000
-10.824240 -8.447590 10.187014 2.000000
-18.970283 21.010894 2.742203 2.000000
-16.757176 0.948479 9.335874 1.000000
-21.398363 23.925633 4.494215 2.000000
-15.909245 -3.741170 6.632846 0.000000
19.806981 -7.987020 13.717275 1.000000
-20.390280 7.491461 10.552728 1.000000
12.281340 16.027959 10.961411 2.000000
-9.718322 -24.822804 7.953790 0.000000
-12.002733 -19.440159 13.934308 1.000000
-21.373367 -7.290507 0.376673 1.000000
-5.225336 18.813702 9.467753 0.000000
-23.276990 -8.420450 12.493144 1.000000
14.115338 -21.108180 0.559299 0.000000
-16.173000 2.261418 3.146719 0.000000
-8.035092 -8.052428 8.762999 1.000000
-8.754910 6.971709 0.078118 1.000000
-19.488952 -3.855164 0.214284 1.000000
22.477095 10.579606 7.294466 1.000000
-12.680517 0.478236 14.459376 0.000000
-1.418916 17.201731 0.217007 1.000000
17.784625 -0.796024 3.645550 0.000000
17.307037 -5.905739 7.264777 1.000000
-17.469263 -18.834604 5.013342 0.000000
-7.093087 6.879118 10.270607 0.000000
11.265498 3.197031 8.307473 0.000000
8.074398 -17.651235 8.321124 1.000000
-1.835274 0.707403 14.874475 1.000000
-3.172585 3.189845 11.912805 1.000000
12.353689 5.836290 11.034856 2.000000
-14.073148 -16.345337 1.842829 0.000000
18.235518 -3.303910 2.445256 0.000000
0.903255 22.900362 1.114018 2.000000
-3.221038 -2.136090 3.662141 2.000000
9.500194 13.039173 4.552417 0.000000
-22.854229 13.770423 10.051265 0.000000
19.661957 5.061911 1.438990 1.000000
6.708581 -10.941682 5.747495 1.000000
-15.594261 20.242552 6.707402 2.000000
-24.974927 -22.162016 9.329166 2.000000
-17.812362 -11.305161 5.907115 0.000000
-11.794977 -22.001425 5.857559 0.000000
-0.212449 -8.526183 7.670751 1.000000
-3.201789 20.792604 8.403313 2.000000
-13.300964 -8.421618 7.382738 0.000000
17.455335 21.308053 9.659429 2.000000
-23.786983 7.590212 10.380187 0.000000
7.079778 -21.149616 2.665569 0.000000
-14.712217 9.849926 3.669690 1.000000
-24.091963 -15.528636 2.399964 1.000000
-23.509777 10.984915 10.846275 1.000000
20.849930 -22.218203 1.384381 0.000000
21.051104 24.079096 12.658654 1.000000
-15.231371 12.949340 5.111898 1.000000
17.058524 3.254665 10.211745 2.000000
23.710639 1.363100 7.197777 0.000000
13.412377 23.074534 5.695378 2.000000
-5.329982 3.633181 13.505797 0.000000
17.867944 3.130355 8.313451 0.000000
16.415893 -6.544577 10.820356 2.000000
-0.313447 22.913578 14.470771 0.000000
0.279026 7.455027 1.932665 0.000000
-9.522998 22.061033 12.380695 0.000000
-15.709233 -0.831485 6.000154 0.000000
5.466095 10.647353 11.803778 2.000000
-1.280116 14.662112 11.028484 2.000000
9.266056 -13.205861 12.239955 0.000000
-4.692858 20.508477 6.790496 0.000000
11.241390 9.668618 5.822439 0.000000
-10.572494 6.334469 10.276934 1.000000
7.719728 11.060736 14.143493 1.000000
7.834347 -10.692794 14.481907 2.000000
-4.582839 -21.086056 0.703247 0.000000
15.674491 7.968984 8.395156 2.000000
-21.478705 23.213602 11.174846 2.000000
11.010104 -6.539257 2.429364 0.000000
10.384705 -8.101337 4.238348 2.000000
5.306045 14.426912 4.025887 0.000000
-8.996639 -14.019460 12.302081 1.000000
-11.576502 3.765103 7.534040 2.000000
4.580602 18.936707 7.222062 1.000000
24.646962 23.735592 11.651396 0.000000
20.029856 3.668065 1.201374 0.000000
16.332337 -2.765760 8.279735 0.000000
-14.716448 0.013829 1.089391 1.000000
-14.696720 -1.438297 8.876865 0.000000
23.267994 -8.235542 5.866682 2.000000
13.489916 -13.678240 8.608814 1.000000
-8.519531 -3.238922 9.732818 0.000000
22.769549 -16.373328 0.228389 0.000000
-12.639710 21.185736 7.435462 1.000000
3.519076 -6.105168 14.764166 1.000000
-24.772823 0.869512 4.093511 2.000000
-12.223847 -11.548989 3.142567 1.000000
-18.768662 19.955997 5.150218 0.000000
-14.352873 8.957036 2.100234 0.000000
-9.616219 1.598533 13.271929 1.000000
22.435371 -2.716077 0.298403 2.000000
6.304963 -24.150057 1.596522 1.000000
-22.620336 10.020589 11.067535 2.000000
24.893491 21.684350 10.543937 2.000000
1.703388 -3.901908 13.485236 0.000000
-4.970392 6.358547 11.899035 1.000000
0.631698 -20.916151 4.046158 0.000000
-11.932980 -15.290518 4.169590 0.000000
13.219690 18.806892 5.936462 1.000000
-15.773172 18.638311 10.593305 0.000000
-13.493405 8.170169 3.926686 1.000000
-21.633133 -22.454184 4.063590 1.000000
-3.032379 -13.208115 6.107444 1.000000
-7.866122 -12.153286 13.668768 0.000000
-15.337311 8.131405 14.104900 2.000000
2.848443 11.553081 8.275165 0.000000
-3.284989 -20.593466 6.233547 1.000000
-18.329087 -5.383214 1.902879 2.000000
-17.764126 -7.678557 13.218181 2.000000
18.082296 -2.762413 14.389646 0.000000
9.938743 -20.639583 9.119349 0.000000
16.660316 6.782913 1.692726 1.000000
-0.078223 4.294309 1.817226 0.000000
1.303826 7.676307 6.749636 2.000000
-18.058951 24.372664 4.475193 2.000000
-8.919342 8.487427 14.346180 2.000000
14.455737 -11.343733 13.945067 1.000000
-6.823094 -18.237910 9.802982 1.000000
-13.193479 24.771974 12.342482 1.000000
-14.850807 -20.355207 4.353042 0.000000
4.936264 -17.144094 8.273685 2.000000
20.473175 -22.700837 13.822270 0.000000
17.187739 2.046295 7.551002 0.000000
3.347011 20.171533 14.681975 2.000000
-23.393470 9.574047 10.306157 1.000000
-8.855335 9.653691 9.190094 1.000000
-16.185233 4.157040 9.042302 2.000000
-9.342034 19.354801 0.636763 2.000000
14.860677 -3.965554 6.657447 0.000000
16.167919 -12.716664 7.132795 0.000000
-19.169245 3.696660 10.524199 0.000000
12.006028 20.139371 8.809729 2.000000
10.400701 -1.471113 7.656416 1.000000
9.957740 -23.325319 5.629226 0.000000
3.086063 19.077225 9.999263 2.000000
17.573895 -6.482245 14.221317 2.000000
-16.231627 -13.480855 1.964031 0.000000
-9.315365 -23.852539 11.271918 2.000000
9.411059 19.598319 4.349757 2.000000
-7.296113 6.797363 10.267893 0.000000
-16.370293 17.268637 14.463006 0.000000
9.674159 1.371060 4.910486 1.000000
12.742554 -6.319518 5.229096 0.000000
-22.647401 20.938445 10.826026 1.000000
5.679530 14.429019 12.618338 0.000000
-12.869553 -13.139077 10.305119 0.000000
13.053377 4.130959 1.689906 0.000000
1.388042 -16.845315 6.704719 0.000000
-12.319093 -22.408660 7.010274 0.000000
24.496482 7.069762 9.306935 1.000000
20.852826 8.596129 12.349008 0.000000
16.989022 -24.742365 0.249090 0.000000
4.708739 -8.734520 7.315345 1.000000
22.188348 1.650295 3.873881 0.000000
-10.329153 -5.382998 5.261459 0.000000
-2.937502 12.090585 10.199770 2.000000
7.138991 -3.670444 5.133521 1.000000
20.939646 -22.845338 9.708710 1.000000
9.703646 -17.356293 4.547753 0.000000
18.853050 16.207111 11.333318 1.000000
2.297154 0.210437 10.889154 1.000000
-10.262194 -20.606666 7.121521 1.000000
-13.308162 21.397371 3.786058 0.000000
11.228529 24.152791 14.162064 2.000000
-10.254884 -24.608559 12.673275 2.000000
6.729668 -7.439186 4.718930 2.000000
7.341959 -13.417554 6.434408 1.000000
-3.806862 -17.580468 0.476828 0.000000
11.679314 -3.527391 13.739015 0.000000
-8.130462 23.273586 5.337876 2.000000
-14.889677 18.494128 13.819256 1.000000
17.225898 -22.298473 1.853756 0.000000
17.085405 7.531649 6.320138 2.000000
13.736987 21.563417 14.641802 1.000000
-13.641432 0.105321 11.166144 0.000000
13.418848 1.442302 13.431075 1.000000
0.170938 7.397355 12.741536 0.000000
19.424953 7.608823 6.505645 0.000000
8.945299 -24.479158 3.840664 1.000000
-22.392649 10.236820 11.751103 1.000000
24.339896 -19.022364 3.029930 0.000000
20.292774 -11.482037 5.710541 0.000000
0.983283 6.232559 10.525289 0.000000
12.625731 -20.754531 11.816148 1.000000
0.827604 9.342953 5.330385 1.000000
21.644858 -17.162037 14.547943 1.000000
-22.351289 -15.959162 5.643445 0.000000
1.956568 -19.902415 14.191578 2.000000
-7.782383 15.436224 10.995456 1.000000
-20.477555 -24.347280 0.005670 2.000000
5.857420 -6.881279 10.637051 1.000000
-21.424428 -6.053645 2.040186 2.000000
10.610136 -10.578350 7.964205 0.000000
-0.393683 15.042576 11.694891 0.000000
-19.308348 -12.597741 0.038327 1.000000
-3.712650 -24.168001 5.237662 2.000000
3.417424 -9.748518 1.359016 2.000000
-20.289894 6.126795 7.415834 2.000000
4.444178 -15.339045 2.749088 1.000000
1.426069 -10.064308 4.681232 0.000000
4.585850 19.072875 3.698302 0.000000
19.580390 -21.319006 8.916839 1.000000
-21.252824 -17.023359 14.086459 2.000000
0.013760 18.042544 6.534108 0.000000
11.860787 -19.850804 14.863412 0.000000
7.703580 -22.439884 13.764951 0.000000
11.332665 3.041711 0.549094 1.000000
10.977900 10.352757 14.201181 2.000000
-2.237895 14.388190 7.781422 0.000000
6.069974 18.021899 8.153898 1.000000
5.257765 -9.135302 13.610528 0.000000
-10.996427 1.244377 3.077345 2.000000
17.101228 12.464766 4.514497 2.000000
-4.768843 2.535451 2.901763 2.000000
10.394448 21.274640 1.337357 2.000000
6.291751 -20.043184 0.107862 0.000000
-0.288286 24.877126 4.839236 2.000000
-16.340441 19.141283 5.582727 1.000000
6.223676 18.469006 1.282702 1.000000
3.593387 17.141599 7.361546 0.000000
23.213857 -1.399997 2.736148 0.000000
8.669569 4.425747 2.853577 2.000000
16.712528 -22.091505 9.485296 2.000000
-4.711580 -18.675585 8.604357 2.000000
3.612852 11.052963 1.964403 1.000000
-10.742129 21.148109 14.320230 2.000000
9.886031 8.196204 7.351562 0.000000
20.581268 2.196928 12.185277 0.000000
17.389545 2.548485 5.441684 0.000000
9.539795 17.760882 2.552929 1.000000
1.804511 -3.628076 6.767930 1.000000
24.749049 -3.109250 1.599583 0.000000
13.600312 -7.655313 8.811625 2.000000
5.937401 -24.604197 11.201864 1.000000
0.721681 22.722216 4.669678 1.000000
-7.244467 12.401062 10.067294 2.000000
-0.798101 -6.689324 11.855090 0.000000
2.463846 23.616509 14.476758 1.000000
-13.619567 9.420898 13.165232 0.000000
-14.874248 22.094708 5.325501 1.000000
17.023395 -6.046888 5.538597 0.000000
-18.191258 -1.001639 4.128818 2.000000
-12.372167 3.752813 8.349399 1.000000
-13.345581 -9.571013 8.834855 2.000000
-22.477375 -18.198616 3.635829 0.000000
-21.687336 22.145043 8.761084 0.000000
-24.528994 11.923881 13.447114 1.000000
0.805282 4.650702 8.189020 0.000000
-14.765062 -19.348558 14.768205 1.000000
-1.685435 -17.949730 2.503007 2.000000
17.290731 -6.692145 12.801622 1.000000
0.448144 23.656075 4.258415 0.000000
15.740269 23.587810 11.169535 0.000000
12.455486 23.195109 6.537555 1.000000
-12.386572 -22.485056 2.740041 0.000000
-9.204497 -20.983979 10.082182 2.000000
1.130353 5.642163 1.258102 2.000000
22.570064 -20.868708 1.994912 1.000000
-15.445863 11.381253 2.091789 1.000000
15.798741 16.001362 4.000930 0.000000
-17.124942 -15.858004 3.987393 2.000000
-10.094261 23.697832 4.666447 1.000000
-20.863763 0.421124 8.125704 1.000000
-8.703042 -19.160477 1.314207 0.000000
13.397518 -11.500045 6.669342 2.000000
10.955024 11.104343 6.677013 1.000000
-12.271133 -15.627824 5.466427 2.000000
16.101322 -17.536223 10.583989 1.000000
-23.705150 -21.998988 13.677457 0.000000
19.546550 12.918057 9.190742 2.000000
-0.594802 -14.896659 3.223757 1.000000
-21.535053 -7.197979 11.163442 2.000000
-22.760677 10.314155 6.897492 0.000000
-11.076286 22.832974 3.562291 1.000000
18.153135 20.473058 5.383432 0.000000
-4.593527 -22.023422 9.004502 2.000000
12.546800 -3.859196 10.740568 0.000000
16.526881 -12.136968 8.780517 1.000000
-5.592181 2.391139 3.992847 0.000000
0.186659 -4.194899 9.000132 0.000000
-7.027687 14.581430 12.755201 1.000000
8.924095 -19.307217 14.455231 0.000000
-5.223118 16.069288 0.043556 2.000000
-22.624750 1.040557 10.376399 2.000000
-12.785696 20.966803 5.833390 1.000000
12.961769 5.157212 1.550619 1.000000
3.809133 23.408936 14.926228 1.000000
-17.805890 2.764837 6.628308 1.000000
21.892382 14.728566 14.356890 1.000000
-3.375607 14.193605 5.649504 2.000000
2.377182 13.514206 1.620422 2.000000
-6.270205 -16.484200 8.997441 2.000000
2.153926 -4.978538 12.191728 1.000000
18.184829 12.821649 13.920465 1.000000
12.445293 14.963543 3.804046 1.000000
-6.693432 -10.700461 6.582894 0.000000
17.199782 -12.918433 0.303070 1.000000
10.828687 -24.125399 6.084126 1.000000
-4.648935 -9.929176 14.229451 2.000000
18.974104 -23.208250 5.913903 2.000000
-7.996861 -9.831773 6.827943 2.000000
-3.648881 -21.177621 9.663855 1.000000
22.729495 19.001565 12.125816 0.000000
24.151766 13.991901 1.177014 2.000000
21.065787 14.174672 9.935962 2.000000
-17.905382 9.178383 3.172118 1.000000
-9.327329 -21.043808 6.622082 0.000000
-18.889792 24.971864 10.085913 0.000000
8.739774 -15.746210 3.179541 1.000000
15.497794 -8.277395 12.553445 2.000000
