-2.182339 -11.373146 13.381827 0.000000
7.217789 11.749023 5.143459 1.000000
-21.692131 22.211649 2.401480 2.000000
18.096270 -8.918668 5.539301 1.000000
1.672882 -19.227609 14.463848 1.000000
-6.289064 16.571777 4.237310 0.000000
11.385483 15.836642 3.860249 1.000000
14.496665 1.041388 14.298069 1.000000
23.822611 10.187047 12.377591 0.000000
8.662709 -12.383616 12.298611 0.000000
15.546450 20.335384 0.283801 1.000000
16.557301 14.139247 2.805184 2.000000
2.563578 -15.575839 9.618284 1.000000
-5.018672 18.428566 1.107405 0.000000
-3.357407 21.099111 1.241861 0.000000
23.770312 5.030434 0.689932 0.000000
-5.591530 19.390155 10.701296 0.000000
-23.796096 -24.575818 9.470805 2.000000
21.081007 24.608498 5.274302 0.000000
-24.934138 21.342431 10.008386 0.000000
16.867630 7.056942 0.973362 0.000000
-18.253987 -6.215907 7.456396 2.000000
7.422493 4.096720 2.613789 0.000000
-13.961674 -10.557454 13.794828 1.000000
-21.164934 -10.090807 2.944675 1.000000
-12.325547 -8.486022 14.355311 1.000000
-8.037491 -7.857854 0.670234 2.000000
-15.027021 -23.792861 4.623716 1.000000
4.930865 -11.312173 2.732272 1.000000
7.550487 24.891626 14.868488 1.000000
-4.303390 -3.842516 2.598333 2.000000
20.660166 -12.951397 13.448102 2.000000
-0.618847 -18.316388 3.743335 1.000000
-12.458877 -12.004291 2.833469 1.000000
14.452534 21.338781 4.559576 1.000000
-21.153962 -1.085126 0.740464 2.000000
21.400418 -6.736916 12.765692 0.000000
-22.557259 -24.755558 8.213530 0.000000
23.714847 -18.355448 4.775873 2.000000
-17.504019 -19.157948 3.291837 1.000000
20.584377 24.642388 13.086076 2.000000
-11.219102 -23.308228 8.799865 0.000000
10.230666 -23.206405 7.797381 2.000000
-7.892345 -15.769011 2.985254 1.000000
-24.779279 7.578074 12.496002 2.000000
13.085045 -16.884196 4.002497 2.000000
-2.423337 -14.666224 13.686780 0.000000
-6.731932 -22.750627 10.127552 2.000000
-23.381562 -10.223382 3.489928 1.000000
2.252245 24.514651 11.828014 1.000000
-10.675020 -22.937825 7.394818 0.000000
13.335117 9.923140 14.052400 0.000000
21.201530 -11.800879 3.806552 1.000000
-15.733184 -4.377846 10.699180 1.000000
0.672104 1.923974 6.790145 2.000000
12.129666 -2.816740 1.006810 0.000000
-21.159690 -7.462753 7.946664 0.000000
18.699472 -0.707415 13.298975 2.000000
-17.298783 14.584716 1.561224 0.000000
-4.596387 -8.274151 9.654988 0.000000
-9.184356 -10.015415 5.925412 0.000000
15.085824 23.403027 13.688223 0.000000
-20.774836 -22.268502 11.388977 1.000000
14.406723 -5.757165 12.353203 1.000000
6.845484 -16.715263 5.359217 0.000000
5.606205 -6.660073 5.455055 0.000000
-17.599192 -16.264934 7.180353 1.000000
14.058255 24.629685 12.577118 1.000000
24.310908 24.590477 12.110080 1.000000
-7.611592 -18.973102 2.531035 0.000000
15.942031 -2.517532 10.116473 0.000000
-19.084934 -10.980651 4.509751 0.000000
-24.733851 13.343882 2.397051 0.000000
18.539110 14.563225 13.595806 0.000000
6.517432 -24.960882 14.927327 2.000000
19.583889 -12.163000 7.142980 1.000000
-1.449470 17.503329 13.236486 2.000000
-6.937110 5.573912 1.448481 0.000000
21.316492 9.370415 12.192485 2.000000
8.159520 -0.097886 3.857090 1.000000
2.154095 -13.302893 4.824368 2.000000
5.234764 -2.659186 0.019668 2.000000
-11.043872 9.226288 12.821735 1.000000
-5.074662 -9.266258 10.783710 0.000000
20.564222 -4.199701 14.029578 0.000000
-6.164453 12.448650 14.753217 2.000000
5.509721 -1.218530 10.185647 0.000000
-3.841512 -24.731943 9.021013 0.000000
-1.249980 -5.718707 13.000059 1.000000
-9.379314 -7.426277 2.025776 0.000000
7.294974 6.622877 11.811546 2.000000
20.799662 2.040475 0.178775 2.000000
-7.218201 -7.617918 10.319304 0.000000
5.227223 -24.981658 4.573152 2.000000
-17.122609 -18.912250 9.918389 2.000000
-19.432585 -19.556116 1.510252 0.000000
-23.295829 -9.977742 13.640657 0.000000
-15.350091 -5.926824 0.590970 2.000000
19.449744 -5.921154 8.697724 0.000000
3.503755 17.786708 12.621103 1.000000
3.451407 -15.241396 13.270573 2.000000
-18.292739 8.607940 8.240162 1.000000
15.827463 -4.003995 11.708611 2.000000
6.255471 -23.428562 7.156980 2.000000
-11.795779 -0.190894 3.122530 0.000000
-15.240704 -23.816325 10.954422 0.000000
-12.805260 14.251113 0.744194 0.000000
15.566259 -0.740548 8.712018 1.000000
-20.233986 -5.348131 14.908469 1.000000
-20.337174 14.704343 7.911024 2.000000
18.774233 10.449823 6.402475 2.000000
8.193189 5.895601 13.439837 1.000000
10.532261 20.606706 0.403574 0.000000
11.621037 14.480426 12.771131 1.000000
-14.048339 -24.893111 14.373544 0.000000
2.134503 -6.854861 8.934197 1.000000
-22.718964 -8.592592 5.296915 2.000000
-13.230146 -8.696456 14.871385 0.000000
20.925544 6.064198 14.284333 0.000000
9.211311 24.235429 6.196006 2.000000
-12.885485 22.548463 1.736763 2.000000
3.620353 -23.955109 14.887593 1.000000
13.278879 2.818024 1.552635 2.000000
3.644402 18.770477 4.625773 2.000000
15.261394 14.215030 4.770029 1.000000
-3.874240 4.758012 7.622773 1.000000
24.844680 -11.284660 8.523324 0.000000
5.022705 -13.559395 6.428547 0.000000
9.127580 8.219991 7.026554 0.000000
21.460488 22.816885 0.372537 1.000000
11.712432 -21.186686 9.846399 0.000000
-22.712889 -20.992780 11.355053 0.000000
-9.086089 -21.650128 9.255503 2.000000
-22.017636 -14.133660 14.121104 1.000000
-21.140190 6.844607 7.791341 0.000000
-19.172434 -0.533402 14.844352 0.000000
-20.475999 -16.473685 3.977354 1.000000
-10.273623 23.264927 0.879932 2.000000
17.204284 4.989960 6.065424 0.000000
-15.877074 -5.444612 1.523535 1.000000
-23.922333 -19.401787 11.465402 1.000000
16.187829 -20.932102 14.449785 0.000000
-15.708895 9.391189 8.343092 0.000000
-2.650794 -10.436550 7.177980 0.000000
-1.115367 -0.014026 9.341133 1.000000
9.583295 18.803852 14.929768 0.000000
-13.532415 18.083695 10.850090 0.000000
-14.973423 11.773644 1.419883 0.000000
-11.649234 3.107623 11.302596 0.000000
-17.008308 -14.504545 8.501131 1.000000
6.592671 -0.538952 8.385941 1.000000
-24.545376 -21.650259 0.039278 1.000000
-8.458568 19.834623 4.577914 0.000000
-16.880547 -14.585794 11.171025 1.000000
23.539765 -5.722780 12.987446 2.000000
3.088812 14.107263 8.395813 0.000000
-20.216579 -17.683985 1.862706 0.000000
23.517013 23.455215 1.520633 2.000000
18.009408 4.907870 7.003833 0.000000
15.569783 -0.831099 5.617524 1.000000
-23.953107 -22.844015 4.175180 2.000000
15.808756 9.807625 7.561584 2.000000
-14.059578 -11.608443 9.002255 0.000000
16.060408 -12.206132 7.149597 0.000000
-0.410141 -20.946396 2.035817 0.000000
-24.198885 22.912984 13.926689 0.000000
-17.557469 22.688966 7.000528 2.000000
15.126569 -16.590596 6.775667 1.000000
1.719206 13.083768 5.126320 2.000000
-16.550048 21.090324 5.855267 0.000000
-15.005770 19.860884 13.303234 1.000000
3.188876 -23.024968 6.478488 2.000000
12.403558 -8.757853 5.548802 2.000000
-5.559744 -17.977604 12.088020 0.000000
17.440653 -19.170703 12.150589 1.000000
22.622788 21.959420 4.281689 0.000000
0.717129 1.030072 11.522253 0.000000
23.329409 -22.256453 7.035037 0.000000
-4.291993 -22.245298 8.711982 1.000000
24.602826 -13.902230 7.775037 1.000000
-3.254700 0.970146 9.779361 0.000000
10.267885 -0.717467 13.113569 2.000000
13.045209 -17.305445 9.527288 2.000000
0.853248 21.056573 1.185886 1.000000
-17.611438 6.939148 9.282140 2.000000
-6.841601 19.773955 0.259963 2.000000
-23.947501 13.492218 8.023600 0.000000
-4.596452 -21.454708 13.366321 1.000000
-14.580942 1.580036 3.573520 0.000000
-13.210781 4.204781 11.004080 0.000000
-15.057350 -3.426499 4.944519 0.000000
15.833503 20.573545 6.707678 1.000000
21.616572 -6.092794 5.347111 0.000000
-20.613883 -5.672008 8.980296 1.000000
9.100376 2.698748 0.776043 1.000000
3.590830 18.576520 4.355543 0.000000
-16.597376 5.771556 5.913519 1.000000
-10.814012 -0.713479 1.609648 2.000000
-20.530232 -10.232177 3.188319 1.000000
-14.637934 -0.602757 6.584337 0.000000
12.655438 -17.739844 12.645377 0.000000
10.058172 -6.232783 10.206537 1.000000
-1.907548 -21.096708 9.219279 0.000000
7.216101 -4.582147 1.673980 0.000000
23.643115 -15.228112 9.673278 1.000000
4.635180 7.221923 2.840263 2.000000
-13.255602 18.257796 5.853834 1.000000
9.022588 19.929598 4.155088 0.000000
11.721225 -0.954932 11.578024 0.000000
-4.244158 -8.856575 13.745830 0.000000
-3.848587 -22.902210 3.914463 2.000000
1.155366 24.014066 3.483665 1.000000
-8.373119 -12.908254 8.740446 2.000000
-1.280273 6.669684 6.821827 0.000000
-10.149129 -3.305189 14.209403 1.000000
-0.508909 -20.224916 12.915066 0.000000
-20.986090 0.542587 2.887713 2.000000
3.596557 -10.505567 6.592743 0.000000
8.088555 13.462343 6.356299 2.000000
2.609793 8.333205 11.664543 2.000000
-15.534964 20.412854 0.095717 1.000000
-6.183336 -3.264549 9.179803 2.000000
-7.168929 12.900834 6.106424 0.000000
0.423493 18.083784 7.916345 2.000000
-10.059958 1.228216 6.096330 2.000000
4.120873 19.746048 11.652403 0.000000
13.197956 -5.080691 4.267189 2.000000
1.057917 12.977806 12.261974 0.000000
-8.849508 4.717539 3.020991 0.000000
6.912928 19.096474 2.597641 1.000000
-11.950118 7.884416 10.886744 2.000000
-17.899174 5.823460 2.953611 1.000000
-0.151859 15.481185 10.592655 0.000000
9.208482 6.000464 14.489919 2.000000
-10.884733 -9.926932 13.946554 0.000000
-17.290788 14.635619 10.386626 1.000000
20.164584 -8.697516 5.643505 1.000000
-23.739548 22.753724 10.597291 1.000000
13.259254 12.493544 4.342250 0.000000
-3.518771 22.452189 6.849463 0.000000
16.498492 -19.132818 11.040768 2.000000
6.121501 12.349909 8.418350 0.000000
20.345534 6.445540 14.007633 0.000000
15.811355 11.989512 1.610500 1.000000
-21.538122 20.576696 0.699552 0.000000
23.209518 14.764262 10.858130 0.000000
15.733739 -16.428877 3.466581 2.000000
20.785117 4.571584 2.967792 1.000000
16.363683 -24.973071 13.807188 0.000000
9.188063 15.779010 9.842316 1.000000
-23.386822 -5.598134 11.168185 0.000000
-16.135952 18.374460 11.317641 1.000000
-21.258797 4.255876 9.008829 1.000000
23.215334 -24.907062 12.451197 0.000000
0.590856 -6.607801 4.679250 2.000000
-24.695960 -18.377798 6.787485 1.000000
-20.341013 -4.546895 8.948517 0.000000
2.373710 19.074249 6.622507 0.000000
-6.045446 20.482236 0.392020 0.000000
6.635865 17.240710 1.130145 1.000000
-2.884999 -9.471519 3.277176 2.000000
3.683337 -23.979988 6.836263 1.000000
22.593739 -9.441113 8.541375 0.000000
-2.610286 -9.207907 8.848507 0.000000
13.153185 -17.449587 3.081310 1.000000
2.492204 8.477568 2.297901 2.000000
-17.675369 21.946123 7.551929 0.000000
-1.387444 -16.535492 9.951037 0.000000
6.934444 -23.344602 3.402685 1.000000
-22.923724 -10.218479 1.932246 0.000000
-3.633948 9.100250 7.703620 0.000000
-23.426534 -22.339329 12.494849 2.000000
-5.573394 14.996769 4.803801 0.000000
0.930227 -17.759758 1.875635 0.000000
2.390806 16.540594 3.525221 1.000000
-7.088171 24.157590 7.554487 0.000000
11.354728 -0.477791 6.464636 0.000000
-15.350690 21.368316 13.916701 0.000000
-0.636687 6.861115 2.379439 0.000000
19.198535 0.679719 11.405640 0.000000
4.522330 23.465220 6.638775 2.000000
15.555464 3.026731 10.131327 1.000000
19.840496 21.019599 10.268024 2.000000
-21.436761 -5.757580 12.570978 0.000000
23.720262 -15.026181 2.054755 0.000000
3.100429 -1.722817 5.435606 1.000000
-23.244450 0.332708 9.811712 0.000000
-14.148808 -19.235672 10.054911 0.000000
11.984840 -18.550896 12.892235 0.000000
-17.120020 -5.979148 13.735379 0.000000
-13.913314 10.459471 3.157239 2.000000
21.709168 -24.771010 5.536940 0.000000
-22.861314 -16.697704 10.685800 0.000000
-9.654156 -16.632884 7.853297 0.000000
18.507375 4.091862 2.507796 1.000000
7.908091 -22.656361 14.442373 2.000000
11.217361 -10.965546 3.839778 2.000000
9.973389 -13.301134 11.135355 1.000000
7.160871 -18.019985 13.274836 0.000000
-19.597187 -7.515275 12.830209 2.000000
20.943490 8.186470 5.232257 1.000000
-8.203751 8.167364 10.238647 0.000000
-2.679937 -8.341297 13.222562 2.000000
-12.231618 -13.598860 5.556067 1.000000
14.344663 -18.330108 10.565477 2.000000
6.831663 -16.064987 12.412413 2.000000
21.541626 -19.888866 4.999112 2.000000
23.605548 19.846601 2.015158 1.000000
20.956864 -22.997335 9.437165 2.000000
10.337134 -2.878256 1.819993 1.000000
-16.592998 10.561611 12.715204 2.000000
24.074893 -21.438524 0.425738 0.000000
-2.584732 15.030440 6.793894 2.000000
17.677014 -24.255495 8.528625 0.000000
-15.347142 -11.151347 2.911552 0.000000
-14.715951 -24.631832 1.659117 2.000000
3.023718 15.456269 1.966337 2.000000
-13.800157 14.329171 14.330840 0.000000
24.751879 -20.013936 4.937410 2.000000
-13.739167 19.542518 8.854599 0.000000
6.410149 -2.527506 0.298066 0.000000
22.033254 6.017355 5.888550 1.000000
-17.040507 -10.693534 4.091177 0.000000
-11.120958 11.788873 14.150068 0.000000
-4.835928 -1.919949 13.586356 0.000000
-18.264883 -12.804606 2.488844 2.000000
16.295950 11.681837 3.504637 0.000000
8.744970 9.423524 1.933581 1.000000
-1.290979 -24.379678 11.701526 2.000000
-3.657327 -22.360495 14.861236 1.000000
14.657151 18.943475 4.710258 2.000000
4.551440 6.761041 3.162336 0.000000
13.386137 -10.170789 7.758035 0.000000
17.845004 13.101197 1.949371 1.000000
-8.376458 1.724569 12.706347 0.000000
12.438868 -19.151302 11.111519 2.000000
14.669532 -20.908228 10.319919 0.000000
2.189368 -14.005330 11.489095 0.000000
-19.790682 -23.459524 2.376073 1.000000
8.466723 -23.418064 6.308975 1.000000
15.054836 -16.938976 10.005477 0.000000
7.333424 0.317816 0.028364 0.000000
14.124098 -1.221126 7.497557 1.000000
7.681550 -22.723919 8.349658 1.000000
-24.375704 7.885777 9.835454 1.000000
9.247941 9.415955 8.915848 2.000000
-9.166327 -13.916916 3.931777 1.000000
14.002145 10.373918 3.411454 0.000000
-15.803218 -7.033230 0.211552 0.000000
16.699399 22.739884 2.567853 1.000000
5.612715 15.406332 10.879731 2.000000
21.285117 15.858390 13.480516 0.000000
6.759977 -11.732077 5.800269 1.000000
-0.579704 -9.323419 14.539651 0.000000
11.772876 14.756435 2.886255 0.000000
-16.075770 15.233323 7.690794 1.000000
-16.793330 7.103399 9.419139 2.000000
-14.539249 16.819766 11.826985 2.000000
4.047002 13.463124 12.082699 0.000000
4.919437 -4.618117 6.951382 2.000000
-1.557093 -20.447788 0.133504 2.000000
-13.676783 22.151845 11.092164 1.000000
24.225765 10.187925 12.541340 0.000000
-12.275985 -9.168062 2.016510 0.000000
14.334913 16.818083 3.487276 1.000000
18.196633 7.089605 5.904622 0.000000
-13.130468 15.469465 6.458881 0.000000
9.537599 2.598979 8.044152 1.000000
-16.018423 10.096905 11.283600 1.000000
2.989048 2.919131 12.368355 2.000000
-11.955582 10.340428 6.071354 2.000000
-22.461119 -11.656731 13.740230 0.000000
22.382925 19.483642 10.493282 0.000000
13.856773 6.975631 13.397668 1.000000
-9.128912 -0.076684 2.757480 0.000000
-10.377163 9.546324 0.511299 1.000000
-22.559011 11.457715 12.624383 1.000000
-16.437065 22.705133 9.790662 1.000000
-11.003414 19.040076 12.400020 2.000000
-0.285936 23.017585 14.889931 2.000000
3.834299 16.074105 12.404072 2.000000
23.866530 19.742103 9.558248 2.000000
-8.311052 18.927171 5.340592 2.000000
24.840817 -22.786873 7.762407 1.000000
-21.129089 -21.258316 0.928919 0.000000
-9.731818 9.921833 0.606356 1.000000
-17.127246 6.466709 8.122501 2.000000
21.868666 -5.192432 5.957972 2.000000
-23.944858 -5.905264 8.668746 2.000000
-23.852136 18.005026 9.396040 1.000000
-14.247489 14.041713 4.659570 0.000000
22.667027 -19.751991 9.770803 1.000000
-4.392606 -9.990401 9.328079 0.000000
-19.005794 1.851907 6.809449 1.000000
15.238632 -17.150186 11.760867 1.000000
6.480118 -0.594570 6.691602 0.000000
-24.631583 -8.332751 12.622681 0.000000
4.183803 -5.856086 14.146619 2.000000
24.843476 -18.641338 5.667339 0.000000
8.875111 13.884300 0.901460 2.000000
-15.754789 -19.723564 9.499510 0.000000
9.634259 11.451512 2.848494 0.000000
-4.425250 14.145824 4.980109 2.000000
-8.603123 20.983411 10.443873 0.000000
13.332953 4.678362 14.294720 0.000000
20.728416 -1.937213 7.373308 1.000000
-14.409453 10.549022 6.553486 0.000000
-17.495609 -12.422494 3.535689 1.000000
-3.384787 17.732723 5.544264 1.000000
4.544992 21.503163 11.201585 0.000000
2.014126 -21.200955 1.210242 0.000000
-19.856443 12.385752 14.305208 0.000000
12.876614 22.243562 13.365273 1.000000
19.827512 0.238381 13.121779 2.000000
-6.834382 0.336861 11.894794 1.000000
20.566471 17.546245 7.128371 0.000000
4.043523 -19.162519 1.429132 0.000000
0.023471 16.158887 1.345628 0.000000
-15.615647 -22.696171 4.660119 1.000000
9.653888 21.695627 0.337323 2.000000
-18.383950 1.813820 10.970183 0.000000
-23.878521 -20.866640 11.702304 1.000000
-3.539988 -13.179457 0.158265 1.000000
-23.287978 -5.271924 1.038403 2.000000
-5.680500 13.342121 14.191951 1.000000
21.051216 12.389111 0.773968 2.000000
-16.909952 -19.962702 1.640846 0.000000
-8.871628 3.935216 3.371447 0.000000
14.212346 -18.341473 3.770026 2.000000
17.130478 23.960323 6.065982 0.000000
-24.113101 -14.985997 14.324625 2.000000
10.429931 -7.073153 2.548743 2.000000
9.024493 -8.537135 14.361440 1.000000
11.965504 -7.010958 4.595276 0.000000
-13.439634 -24.557509 6.994542 0.000000
-6.766480 5.629278 13.163483 0.000000
-23.555533 -23.680387 3.629230 0.000000
-20.444264 12.392492 7.331609 1.000000
-2.265422 -4.746046 11.080809 0.000000
-16.377185 -9.494051 7.632589 1.000000
2.995671 15.628439 12.474100 1.000000
3.606838 5.491988 13.748581 1.000000
0.612835 22.808960 5.777079 2.000000
-10.765208 -13.585298 10.991407 1.000000
-4.015719 1.743676 10.234736 1.000000
5.197342 3.232218 9.560797 0.000000
2.128872 -21.118223 6.085922 2.000000
12.102141 -17.635184 4.325539 2.000000
-11.113340 17.831247 10.534149 0.000000
10.132034 18.197674 11.729432 1.000000
13.936435 13.788924 12.667562 2.000000
-5.876579 -3.171222 14.819826 0.000000
-3.386624 -13.731987 10.907369 1.000000
19.899093 2.680367 11.360620 2.000000
10.356544 12.272473 2.068046 2.000000
17.969803 -8.284601 4.871945 1.000000
9.751489 -9.393046 13.502141 1.000000
10.135291 -0.734459 10.461277 2.000000
9.626752 4.349376 2.721566 2.000000
19.985131 -9.179179 2.863731 1.000000
19.741802 -6.709713 4.410255 1.000000
-17.669226 10.354583 9.466793 1.000000
24.025091 -12.105111 0.610421 2.000000
11.100921 -19.345109 2.408490 2.000000
10.489250 10.011519 1.984935 0.000000
6.635044 14.943470 3.190061 2.000000
-7.598564 -24.818997 2.631463 2.000000
-5.499613 13.053347 10.092717 0.000000
4.246244 -22.271300 11.414112 0.000000
0.666811 -6.929907 1.632394 0.000000
-0.959766 20.486437 11.249891 1.000000
-1.868810 -10.958839 1.721132 1.000000
-21.582590 16.588263 9.062696 0.000000
16.532300 -21.558813 8.585748 1.000000
-19.576228 -5.961775 3.846074 2.000000
-8.934844 -7.073041 10.503814 0.000000
4.676089 -3.856188 9.996007 1.000000
21.992329 3.693593 3.663159 0.000000
12.235233 -11.154446 3.801997 2.000000
-8.275742 -17.905048 5.960220 2.000000
-21.758229 -24.859358 14.297855 1.000000
8.216530 10.290209 13.493420 1.000000
17.124705 -15.492766 5.745345 1.000000
-12.469193 -22.284702 10.155545 0.000000
14.526582 -15.589614 2.760542 0.000000
-21.257941 -6.150877 6.744541 2.000000
18.823779 -14.399161 10.385386 1.000000
-20.889921 -6.287995 9.908966 0.000000
24.137598 18.582777 6.501515 0.000000
-24.464101 -21.965886 6.861784 2.000000
5.696297 14.243915 0.434947 1.000000
23.143644 10.303371 5.882495 2.000000
-13.655914 -23.846310 5.588414 2.000000
-17.891167 -0.712862 3.395176 0.000000
-0.963175 -9.284479 14.699660 0.000000
17.414271 20.170834 9.963150 2.000000
-22.328700 0.640248 10.732126 0.000000
-0.209672 19.776118 5.606209 0.000000
20.846465 -16.244376 0.771340 1.000000
12.502707 19.652921 6.162257 2.000000
-21.743200 -23.614568 8.695972 0.000000
7.845040 -17.404343 6.944418 0.000000
-2.540149 21.239069 4.287372 0.000000
13.758915 -7.269497 4.661373 0.000000
1.217455 14.117173 14.253789 2.000000
3.376008 -7.732725 1.332398 2.000000
15.078693 10.406081 5.667229 0.000000
-20.928609 8.771843 10.283866 1.000000
-24.843226 -5.354452 13.293324 1.000000
21.896635 12.076640 1.627721 0.000000
-4.947735 -23.731387 4.349063 0.000000
0.982594 -3.826652 0.449629 2.000000
-2.292799 -13.094226 7.934460 1.000000
-24.287555 9.416810 12.259205 1.000000
-8.580274 -21.599565 4.632987 1.000000
-15.082553 -17.867348 1.173494 0.000000
-2.687014 9.444372 9.932493 1.000000
-21.690862 13.126453 10.259685 2.000000
-5.707853 13.982981 2.690822 1.000000
-11.975304 0.496043 5.798827 2.000000
-14.840364 -10.275345 11.469552 2.000000
6.744987 -15.253201 3.304152 2.000000
12.916873 -7.356586 7.435786 0.000000
-6.145846 -15.830820 14.413813 1.000000
18.435450 23.403069 9.046951 2.000000
10.341381 -7.464934 12.717450 0.000000
-10.486187 9.431619 14.479986 0.000000
-24.328565 22.868255 4.423595 1.000000
12.212145 22.612112 0.781103 0.000000
-4.969099 7.407232 3.372652 1.000000
-10.512336 18.308940 3.870336 1.000000
-9.038698 -14.793478 3.144209 1.000000
14.793206 -0.316901 5.027904 0.000000
-14.807653 -8.436026 6.053893 2.000000
-0.286142 17.087694 5.604354 0.000000
0.643494 -13.227904 6.748416 0.000000
13.530591 0.682720 4.516505 1.000000
-20.037199 -2.596648 1.076352 0.000000
-11.344477 22.426696 8.331438 0.000000
8.734668 4.381136 11.029753 2.000000
-23.249556 1.203022 9.784350 1.000000
19.427144 -23.297612 6.569212 0.000000
-2.547804 24.467861 6.255296 1.000000
9.990644 2.554023 1.671824 0.000000
15.854596 -3.934530 9.814584 1.000000
6.382350 8.435290 3.265458 1.000000
15.997220 13.489182 7.875105 1.000000
-4.842906 10.030677 10.098449 1.000000
11.052276 -19.250695 2.030300 0.000000
-19.050910 -1.444107 11.868473 0.000000
-17.130934 16.937150 8.172605 1.000000
18.526278 21.827827 14.940642 1.000000
21.655206 -3.145444 3.696402 2.000000
0.204041 14.296643 5.983823 2.000000
-11.439346 1.713598 8.302200 1.000000
18.714681 -18.553936 0.688876 0.000000
19.416754 10.146649 7.165959 2.000000
-2.643501 -19.869640 2.690097 1.000000
-2.197158 2.762073 5.139781 0.000000
-22.706028 -6.994145 2.103719 2.000000
16.986961 -10.650784 12.321846 2.000000
21.159578 -24.157011 5.620266 2.000000
-16.917211 -10.654432 5.217667 2.000000
5.058398 -13.336765 4.944760 2.000000
-0.941855 20.496725 1.651767 1.000000
-1.999295 21.500593 5.533208 0.000000
-22.548737 -12.584630 2.491221 2.000000
-21.491791 14.073197 0.273389 2.000000
6.834994 3.875005 14.243118 2.000000
5.573793 7.398614 4.694720 2.000000
-23.110101 14.876128 9.007027 1.000000
5.192756 19.823212 4.786796 0.000000
-18.309089 14.469444 1.907946 1.000000
24.698693 5.078366 0.935507 0.000000
6.051609 -8.608133 7.533751 1.000000
15.201814 24.914357 5.687462 1.000000
-9.704810 11.542301 9.194330 0.000000
2.338101 0.106885 6.386408 1.000000
-9.317457 17.689633 7.498458 1.000000
-21.924009 -21.881870 8.192983 0.000000
15.507325 16.633586 9.201111 2.000000
4.851383 -16.036171 12.322574 1.000000
19.709751 -8.891659 12.564314 0.000000
6.997607 -15.168135 8.052084 2.000000
-21.112483 -13.194293 11.940584 0.000000
-5.910499 17.046532 11.222301 0.000000
16.923960 8.752878 6.357595 2.000000
-23.714695 -15.615156 11.081849 0.000000
20.014592 17.762057 8.598930 0.000000
-9.903040 22.420983 6.379472 0.000000
6.815728 -5.564703 12.358602 1.000000
6.213159 11.462808 11.547099 0.000000
9.928233 14.479418 14.153324 1.000000
3.672871 -17.425444 4.552448 0.000000
-15.129833 -2.149217 6.299014 1.000000
15.288429 -19.178221 6.152947 0.000000
-3.538591 17.042313 7.748304 0.000000
-11.391682 6.952875 4.971402 1.000000
9.851133 9.303544 9.247224 0.000000
-4.133341 -20.790421 8.608935 0.000000
-22.959374 -3.993332 10.776459 0.000000
23.771516 -21.007964 9.653527 0.000000
-12.334456 10.939444 11.688231 2.000000
-17.197240 12.954530 12.293784 2.000000
-5.636045 17.188316 6.403351 1.000000
-11.118439 -10.212540 1.287655 1.000000
2.485129 16.242662 14.649285 0.000000
-4.099368 24.490383 13.583098 0.000000
-4.238713 2.930749 0.749708 2.000000
5.676274 21.859433 12.413650 1.000000
5.820568 -18.403353 1.788776 1.000000
5.314082 20.051526 4.821271 2.000000
-2.352552 4.800407 1.008189 2.000000
4.870597 1.276862 9.277876 1.000000
9.167121 15.424950 9.429391 0.000000
-3.100910 -11.478334 11.793017 2.000000
-18.525840 -17.978711 1.413475 0.000000
-19.967370 4.454430 8.103915 2.000000
19.215687 17.206373 0.767267 2.000000
-20.630359 -12.923239 6.435461 2.000000
9.707300 -4.616312 14.855958 2.000000
-19.547470 10.034334 2.946636 1.000000
18.997830 -23.524923 8.398199 2.000000
8.233991 24.881074 10.100453 0.000000
19.450683 -8.548639 4.415987 0.000000
18.809277 -0.433389 13.927824 1.000000
22.472649 16.233746 4.700144 2.000000
8.123556 -0.603814 1.844711 2.000000
-2.517254 2.642453 3.589957 2.000000
4.834793 -20.909880 5.244430 2.000000
15.210190 -24.349688 3.338146 0.000000
17.006233 -23.393883 3.815880 1.000000
14.276625 7.291660 12.067456 1.000000
13.375545 3.900468 12.386173 0.000000
-15.876922 9.105204 7.827089 1.000000
10.997227 6.871912 8.028612 2.000000
6.065237 2.655091 3.280691 0.000000
6.141767 3.230895 2.458945 0.000000
19.992440 4.288304 12.668889 0.000000
-5.620168 -1.907585 12.497957 0.000000
11.127263 18.709825 0.742087 1.000000
-20.357302 11.862304 4.542712 0.000000
17.831144 -12.477165 9.056441 0.000000
-10.155134 23.816752 14.127481 1.000000
-21.932040 -0.640829 14.682505 1.000000
18.763008 -5.962525 14.858511 2.000000
14.283404 0.716741 3.067872 1.000000
-5.249263 -5.525659 4.964795 0.000000
-20.828167 3.493711 10.739633 2.000000
16.737685 -6.270979 2.704211 1.000000
22.007719 -3.019783 2.353893 0.000000
15.272093 -15.224976 1.255740 1.000000
-4.151392 -11.498723 7.436961 1.000000
-14.813379 2.949105 11.724824 1.000000
2.896976 -11.970138 8.245183 1.000000
20.003353 17.666675 10.365242 0.000000
18.143386 -13.104982 3.790477 2.000000
-21.549236 -4.865232 0.430082 0.000000
20.993932 4.645786 0.435208 1.000000
2.910580 -16.067098 0.785171 0.000000
16.052628 -18.520842 7.916617 0.000000
-6.758853 13.426054 7.733282 0.000000
-23.473474 -5.778032 0.321185 2.000000
5.544061 3.432676 5.862385 2.000000
1.015557 -4.543316 0.769061 2.000000
7.986208 24.442951 0.265948 1.000000
15.212056 22.397692 9.281540 1.000000
-4.566378 -8.524807 10.314800 0.000000
6.581402 8.740657 8.155376 1.000000
-11.044473 -7.804913 12.358781 0.000000
-1.087911 -7.159308 5.428830 2.000000
11.243620 6.752369 10.912402 0.000000
12.393814 -24.541790 10.645186 2.000000
22.165145 22.338465 5.507426 2.000000
-9.991020 2.631790 3.923470 2.000000
15.425631 -16.450576 3.116196 1.000000
7.892700 -9.889977 11.913638 0.000000
1.464590 10.227849 5.553130 1.000000
-24.056796 21.866042 8.350856 0.000000
24.345402 8.294146 12.303362 2.000000
-15.501275 -10.780219 9.642407 2.000000
-16.005139 -19.167594 6.427226 2.000000
-12.366406 -8.670593 13.577253 1.000000
8.005942 3.189472 2.274926 0.000000
5.908070 12.408847 3.944860 0.000000
20.336888 -10.014802 8.717618 1.000000
9.778736 7.495028 13.076332 1.000000
19.734226 -5.555648 3.858384 0.000000
-11.586888 12.627986 4.681259 1.000000
9.430645 -14.928796 1.763973 0.000000
2.636136 -11.111611 12.134036 1.000000
-17.120638 14.187869 2.111778 1.000000
15.767830 20.414434 13.410849 1.000000
-14.759387 -16.226834 4.685720 2.000000
4.557803 12.091839 12.771000 2.000000
7.812195 5.151353 14.612822 1.000000
-2.507702 13.569236 9.046740 2.000000
-23.515714 3.755354 2.389737 0.000000
-15.907169 16.460849 13.314705 2.000000
-4.997373 -2.611456 7.482881 0.000000
23.721796 -6.996284 5.085122 1.000000
19.387273 12.224792 0.293285 0.000000
-11.727320 -2.194176 5.143559 0.000000
23.644265 -18.754456 8.222311 0.000000
-9.778849 -22.816760 5.680498 2.000000
-3.389963 -24.935945 9.404927 2.000000
-12.042434 -20.395465 1.048892 0.000000
-22.054493 18.280372 1.824985 0.000000
-14.605045 5.030039 1.591289 2.000000
14.563618 20.372656 10.197374 2.000000
16.594647 20.736347 11.633519 0.000000
-4.545147 23.231387 13.322873 1.000000
2.334583 -24.896125 11.057305 2.000000
3.491032 -19.108140 0.888088 2.000000
19.405501 17.483741 8.858343 2.000000
15.184276 24.128365 3.270823 0.000000
0.259286 8.629558 3.414977 1.000000
18.755357 3.357719 10.842917 1.000000
22.140893 6.002069 11.582277 2.000000
-10.699211 18.431468 4.531475 2.000000
11.331213 19.204458 6.982239 0.000000
-10.052398 15.426494 0.773875 2.000000
-16.716547 -21.138857 10.276790 0.000000
-17.056546 18.701947 1.861088 1.000000
24.067155 19.934691 10.427660 0.000000
-22.998801 11.357796 6.336684 2.000000
-20.973227 -4.696714 7.417398 1.000000
23.031954 -19.954988 10.850654 1.000000
22.706658 -21.815295 2.254829 1.000000
-18.784027 4.710687 3.435370 1.000000
5.033884 19.433688 12.747376 0.000000
14.362022 -5.684088 6.925143 2.000000
3.118845 -17.311806 9.353897 1.000000
21.439206 11.406907 9.750253 1.000000
-16.896184 -24.547337 11.908463 0.000000
15.337098 20.764739 9.826344 1.000000
13.186029 -0.956110 8.524196 2.000000
-24.245940 -7.987704 13.718436 2.000000
11.127855 -22.621887 8.325407 0.000000
22.632032 -6.479020 14.409724 0.000000
-24.464816 5.986292 6.232786 1.000000
17.254211 -18.473017 2.164332 2.000000
-3.213349 -3.431284 4.141900 2.000000
-10.976296 -9.887967 8.425128 0.000000
-23.810518 -11.314356 14.177242 1.000000
-8.224196 -19.990869 7.991452 2.000000
15.829622 -6.564008 8.903584 0.000000
19.051764 -11.721591 11.657723 1.000000
-3.140595 18.378010 14.781127 1.000000
17.159411 -24.111827 12.589733 2.000000
10.796452 -23.741003 9.167409 2.000000
23.204618 -14.038137 2.348615 2.000000
-6.274873 24.017009 13.047425 0.000000
-24.382286 16.408649 12.834770 2.000000
7.293978 -9.420161 13.943694 0.000000
-15.866527 15.422533 5.183793 1.000000
-19.756158 6.702183 2.700879 2.000000
14.508382 15.558392 1.290704 0.000000
9.732812 19.569728 7.029811 2.000000
22.974363 -3.304820 9.028376 0.000000
11.006883 -12.044333 12.501172 1.000000
-6.878197 -21.323117 12.416320 0.000000
16.666862 11.707027 13.192836 0.000000
7.202272 18.027403 14.087633 1.000000
-16.353129 -16.816557 6.871417 1.000000
23.809159 -11.814713 1.062758 2.000000
14.610687 -12.724970 10.524590 0.000000
-11.475131 -9.395535 9.012451 0.000000
-16.261551 15.646383 7.476445 1.000000
18.226146 16.937052 2.589316 1.000000
20.589354 17.749382 2.653596 1.000000
11.737930 0.449962 1.624284 0.000000
21.588992 -10.170916 13.823757 1.000000
-16.739241 23.915444 14.130118 1.000000
-23.493470 -8.228011 2.081172 0.000000
17.021361 12.722519 4.539200 1.000000
13.928570 8.067926 12.829573 0.000000
-4.736232 -1.655460 8.998472 0.000000
17.598692 -21.587563 12.785125 0.000000
10.165994 -9.775797 9.612917 1.000000
-4.390817 14.629301 0.363943 0.000000
-16.291888 13.495420 4.803001 0.000000
-15.035483 -24.636954 7.748187 2.000000
-23.003335 -17.929705 10.899764 2.000000
-17.079400 9.528387 0.567207 1.000000
3.107782 0.361609 5.172070 0.000000
-2.708313 -12.633408 9.695302 0.000000
-0.545474 -17.428341 2.334452 0.000000
6.990124 21.670828 1.275729 1.000000
14.687064 -1.593065 9.427136 0.000000
11.624605 18.410129 0.573231 0.000000
4.768989 -4.228756 11.580683 0.000000
12.381516 -10.790580 12.081431 1.000000
-3.573602 23.114562 3.425310 1.000000
12.784200 -24.395139 14.758848 1.000000
18.381682 7.199984 7.047801 2.000000
-3.130757 8.407413 11.423827 2.000000
20.012070 -2.549779 2.095084 2.000000
14.528637 -16.975300 13.313561 1.000000
11.172832 12.876668 4.663114 1.000000
-11.846006 10.517772 7.730954 0.000000
-2.619271 -21.214843 11.011313 2.000000
9.469298 -15.076994 9.608787 0.000000
-2.161528 1.925856 0.250854 0.000000
-6.482507 -4.168281 2.843895 1.000000
-20.127639 10.998301 10.842519 2.000000
17.353181 10.520406 0.519280 0.000000
20.503514 -0.484249 10.479945 1.000000
9.872943 6.964399 5.460752 2.000000
3.229933 -2.962323 13.559396 2.000000
-13.505906 17.410754 14.202877 1.000000
-6.924132 -8.910365 0.818415 0.000000
-23.968378 -21.477480 3.797370 2.000000
-8.764902 -16.965984 13.232371 2.000000
-9.278370 -24.711835 12.359565 2.000000
21.430480 -4.740342 12.491259 1.000000
-18.167282 -1.841192 7.957963 0.000000
-3.800446 -8.658052 2.037517 2.000000
1.332565 -5.121345 14.251554 2.000000
-7.766708 21.000870 14.739354 0.000000
-20.246830 23.307804 4.695366 2.000000
-21.207690 16.324829 2.074695 2.000000
1.181590 -0.080105 13.116770 1.000000
-14.511058 1.953881 8.301457 2.000000
-24.494014 18.276507 7.338554 0.000000
3.277734 15.215326 14.699371 0.000000
-21.943623 6.444491 10.482881 2.000000
-22.914664 3.891889 5.306369 0.000000
16.853966 -23.223843 8.199175 0.000000
20.422918 -5.844237 6.792111 1.000000
-22.539201 3.768057 1.525105 1.000000
-6.708002 14.908615 11.496065 2.000000
-9.023064 -10.142649 7.360628 1.000000
-19.748847 6.691306 1.677531 2.000000
-4.911241 22.129945 7.995798 0.000000
8.890176 9.339720 12.499759 1.000000
24.733860 -21.838574 12.314714 1.000000
20.876452 -24.489818 0.673059 2.000000
24.962383 -12.174884 12.576254 1.000000
24.757443 -9.839986 6.782549 0.000000
-19.299835 -22.593210 4.456243 2.000000
8.540506 -24.965727 7.835807 2.000000
2.518903 -4.009623 11.409162 2.000000
2.841750 -8.171230 4.663896 0.000000
12.009991 8.630219 4.631122 2.000000
-4.493717 20.275835 14.743793 0.000000
10.122012 1.806505 8.055219 0.000000
-13.817486 -18.477266 9.662395 2.000000
-1.481509 23.214158 7.433980 1.000000
9.073938 -4.364374 6.997834 2.000000
-17.339374 18.916410 3.023859 0.000000
12.477903 -3.490304 14.520300 2.000000
0.061806 23.250018 2.520958 0.000000
-11.005538 -18.518787 3.300212 0.000000
-17.561530 14.072098 14.781074 2.000000
-9.293977 -10.863918 0.002545 2.000000
-23.457491 -21.610678 5.446485 0.000000
-10.180367 -22.847135 2.515153 0.000000
0.471345 24.355132 10.344615 0.000000
10.028638 12.815583 12.181997 1.000000
-3.172358 -16.808913 5.763409 2.000000
-2.657493 22.895377 7.993401 1.000000
-14.744330 8.528535 13.943574 2.000000
-21.022589 -10.509337 13.861604 1.000000
-2.605280 -19.302781 8.163447 2.000000
-7.625536 -19.363103 7.636104 2.000000
8.795853 -24.599811 6.452301 0.000000
15.300009 -0.107853 3.960890 0.000000
-16.421880 -19.762453 4.643214 2.000000
-7.540526 -7.621614 11.652344 2.000000
-23.418630 1.005072 2.729669 1.000000
-17.252593 19.029796 7.464308 0.000000
1.446820 16.937892 11.008927 0.000000
2.784808 18.462509 0.935454 2.000000
-7.202781 11.721776 7.813918 1.000000
18.046456 14.960695 9.279596 1.000000
-20.842405 -14.413736 5.223823 1.000000
11.781822 -18.980247 1.937694 0.000000
24.510824 1.912584 6.972608 1.000000
-18.134405 0.511026 6.255323 1.000000
-23.000638 23.765124 11.330477 1.000000
-13.518561 19.585388 14.537082 2.000000
-20.371931 -9.375114 7.707030 1.000000
-19.192904 17.730478 7.625120 1.000000
5.219746 2.888946 0.982996 2.000000
1.288965 4.306644 3.556267 1.000000
21.059303 20.667196 6.639818 1.000000
10.101733 12.316636 10.484022 2.000000
14.727030 11.836797 12.555549 0.000000
-12.494286 -12.694144 13.733335 0.000000
9.604387 10.188796 4.220253 1.000000
19.687878 20.448817 4.983957 0.000000
-19.082257 7.509301 12.399411 2.000000
21.863582 -23.263356 3.614474 2.000000
14.295512 7.165820 3.782529 1.000000
-5.290281 -10.346133 2.986862 0.000000
3.172042 -3.088698 11.741795 2.000000
-19.359037 -6.172010 9.336887 2.000000
5.076173 -10.534372 6.880522 1.000000
-6.158754 -21.862807 11.030296 2.000000
3.230617 -3.713457 9.418221 1.000000
11.401725 -9.854935 12.809022 2.000000
-1.884702 0.340270 7.715709 0.000000
-12.619568 24.400816 1.424175 2.000000
22.777980 5.249479 1.378089 2.000000
-13.097870 8.376256 14.363309 1.000000
-12.539720 -24.297614 2.108873 0.000000
-24.639662 5.346429 14.638278 0.000000
20.907939 24.201111 2.044614 0.000000
15.421437 -19.578106 13.388786 2.000000
17.781402 -17.287307 4.495172 1.000000
22.165985 -6.644394 8.287236 0.000000
-23.927087 -3.142810 12.174377 1.000000
-9.049665 -22.005442 9.794269 1.000000
-22.768364 -13.875170 1.568612 0.000000
3.595450 1.355112 4.829239 2.000000
-18.798985 -12.559523 4.924646 1.000000
9.220591 7.783501 3.511374 0.000000
-6.085438 6.139110 13.895619 0.000000
-24.070802 9.634645 0.576173 0.000000
3.581611 17.302441 11.140657 2.000000
22.342835 -18.504320 6.788808 0.000000
-11.939374 4.301490 7.717718 2.000000
-10.002257 -6.890277 3.574881 2.000000
18.688238 9.525070 11.326582 0.000000
15.155603 -4.974295 0.419122 0.000000
16.709600 -23.354169 6.030774 0.000000
-2.312754 23.823866 12.841480 2.000000
-17.882201 24.073314 7.440743 2.000000
3.863104 23.499234 9.276562 0.000000
-18.496764 12.291214 0.099906 0.000000
-16.700665 -2.418194 4.635953 0.000000
20.247460 -5.456587 11.507754 2.000000
5.556005 6.525351 2.088955 1.000000
16.058797 17.504859 5.016285 0.000000
11.401184 -17.530263 3.666762 2.000000
-4.352706 22.571934 11.373278 0.000000
20.569743 13.809926 0.894250 1.000000
-4.049766 -20.611515 0.410912 1.000000
-21.771977 9.599490 9.999178 1.000000
-24.553100 2.133838 11.267160 1.000000
13.901150 -23.977472 6.179741 0.000000
-21.887906 7.933976 1.819075 0.000000
-10.239904 12.579332 10.308490 0.000000
-15.736233 -11.948469 4.782910 2.000000
-17.745555 -9.456770 10.221587 1.000000
22.538621 -15.392969 3.893482 2.000000
5.218531 -19.239801 7.584860 2.000000
-1.949891 -22.450632 13.204771 2.000000
21.912182 20.254890 3.424520 0.000000
1.542118 -11.808699 2.423026 2.000000
4.385947 17.875114 13.982863 1.000000
6.090915 10.948438 13.707490 1.000000
20.495120 17.124671 7.271070 0.000000
14.205378 -15.215924 12.278860 1.000000
-11.376606 -13.381454 9.791966 1.000000
-7.482321 5.633346 4.798035 1.000000
-5.203731 -3.112987 6.984996 1.000000
-15.847343 19.004025 9.254720 1.000000
6.721006 -0.090782 2.998059 2.000000
-14.169641 -7.774651 5.999756 0.000000
-10.795598 -18.485817 0.377647 0.000000
6.260564 21.163205 2.354994 0.000000
-12.794183 -18.661716 7.778828 0.000000
-24.554766 -0.485681 8.394920 1.000000
-19.293948 -20.070030 9.173127 0.000000
-24.127220 -23.484151 11.507684 1.000000
18.765095 0.228165 1.753366 2.000000
17.611437 -12.743236 3.326085 0.000000
-6.059197 24.750801 3.312309 1.000000
-8.713264 -4.960875 9.043524 1.000000
-22.541600 -0.115689 12.754845 0.000000
-6.481038 12.182512 1.883777 2.000000
16.069800 -4.991242 1.632034 0.000000
13.514660 -3.806137 10.815094 2.000000
-6.355266 -8.245350 2.394380 0.000000
19.635913 -8.274051 12.132585 2.000000
-14.146326 -11.670426 0.582038 1.000000
-8.035105 13.682307 10.621506 0.000000
2.275222 -10.906924 10.956501 1.000000
4.463100 -22.488355 14.340105 0.000000
13.839970 18.639101 7.009691 0.000000
1.018409 1.037886 2.543245 2.000000
13.519870 3.244227 12.334096 0.000000
-24.900088 -3.838187 12.907857 1.000000
-23.555896 -20.553235 14.949473 1.000000
11.399304 -15.154785 8.227281 0.000000
21.745444 24.542833 10.875242 1.000000
-19.428914 -21.068291 11.978383 0.000000
12.322539 -20.102687 5.146258 0.000000
20.155858 -0.968377 1.181131 2.000000
23.947208 22.174501 13.730320 0.000000
24.178138 0.249690 5.514245 1.000000
6.034594 -17.729437 1.805724 2.000000
10.439130 -6.954099 7.344975 1.000000
3.359344 18.065967 12.996657 2.000000
15.159841 -20.846161 8.255785 2.000000
-9.090276 7.327044 8.599191 2.000000
23.916168 15.318101 10.114346 1.000000
-9.885293 -6.790047 11.933513 0.000000
10.955139 -8.156179 2.144419 0.000000
1.043075 -15.031326 5.418143 2.000000
1.532878 0.943080 8.744878 0.000000
1.122156 -24.664980 4.633243 1.000000
-18.934905 1.454608 11.890242 2.000000
-23.794620 -6.837492 12.923774 1.000000
-23.737371 -23.745261 4.997871 2.000000
4.092614 22.069464 5.079947 0.000000
