-9.868417 -12.382243 14.024745 2.000000
16.036063 11.705932 10.522739 2.000000
15.047470 3.374082 3.519130 1.000000
-4.211848 -16.340845 14.846261 2.000000
-7.992856 -4.181757 2.099824 0.000000
-5.371843 15.776784 5.629567 1.000000
4.134272 7.850930 14.390083 0.000000
0.902346 -13.724077 7.675043 2.000000
10.212642 22.149882 5.443113 2.000000
-21.022573 12.143046 8.936525 1.000000
-9.573100 23.104478 8.746989 0.000000
-23.575650 -21.702524 2.301512 1.000000
24.089870 -17.065565 13.202465 2.000000
-13.861077 -20.764692 11.996310 0.000000
22.606014 20.762745 13.051744 0.000000
-5.410283 23.610730 7.067139 1.000000
4.639494 -14.331659 0.385716 0.000000
-13.672806 24.743444 11.617458 0.000000
-0.099825 -15.854757 10.965235 0.000000
18.157659 1.433607 0.660524 1.000000
13.896235 -23.435989 10.469715 0.000000
-17.302893 22.746406 12.787488 1.000000
-16.309743 -3.911436 6.599574 0.000000
6.520151 -19.322874 4.361634 1.000000
5.297197 -7.591531 14.845136 1.000000
-5.512360 6.123479 7.798913 0.000000
4.614147 -0.853825 6.382988 0.000000
20.165805 -3.044487 0.841958 0.000000
13.079996 -19.785302 8.560209 0.000000
11.640608 -2.037257 14.758415 2.000000
-8.524327 -13.974629 6.081389 0.000000
13.111237 -10.912929 10.579856 2.000000
13.671804 19.170999 0.305983 1.000000
5.865822 18.143574 5.295744 2.000000
-8.611560 10.439644 14.886369 1.000000
-21.760096 -16.484098 10.353422 0.000000
-13.230907 5.106778 13.671006 1.000000
-0.902640 -22.819094 1.539948 0.000000
21.802653 9.700440 7.031294 1.000000
-12.149883 18.019521 9.576319 0.000000
3.502855 9.401200 6.003093 2.000000
-5.494464 -17.081048 0.851024 0.000000
0.694216 10.897173 1.565021 2.000000
-15.147861 -23.178921 7.645511 2.000000
-10.025205 19.189252 8.356206 0.000000
-9.415047 -21.787582 5.550916 0.000000
4.830578 17.407143 13.885850 0.000000
-19.305552 10.113373 6.867020 0.000000
20.699438 -21.023881 12.179234 0.000000
-24.000529 7.955726 13.592654 1.000000
-1.537863 10.731044 1.682258 2.000000
15.741723 20.749057 11.531153 1.000000
15.854843 -12.171528 7.969144 1.000000
10.820588 22.299830 2.405989 2.000000
-24.912489 5.381059 5.223632 2.000000
-7.859329 -20.440525 10.782354 1.000000
20.225480 13.236296 4.028473 1.000000
-22.083724 13.740319 2.375829 1.000000
-4.280861 23.701433 12.661161 0.000000
-9.394930 -16.678054 6.307012 2.000000
-24.164131 10.544442 6.823363 0.000000
-8.042088 21.471956 13.664216 0.000000
-8.953154 23.586670 3.626537 0.000000
-11.730006 4.294567 3.438205 0.000000
-22.743156 9.805877 2.314928 0.000000
-6.783486 -14.788340 9.388668 0.000000
-0.254373 -14.740480 1.094326 0.000000
-17.417417 -17.213392 8.108097 2.000000
-4.087302 6.976746 14.187263 2.000000
-10.036789 23.226307 4.026420 0.000000
-11.593008 8.825604 10.779451 1.000000
-8.955124 18.200495 5.730327 1.000000
-17.706796 -2.436580 1.668454 1.000000
3.279221 21.452866 4.639168 1.000000
-15.608361 -14.298210 11.412917 0.000000
-16.260438 6.016228 1.863735 1.000000
4.334256 6.442692 10.109005 2.000000
-20.809791 15.126918 14.553360 2.000000
24.339759 14.373529 5.956294 1.000000
-8.465616 -19.274447 6.241246 0.000000
-13.328624 18.259655 11.766884 0.000000
-16.457007 10.860265 8.055741 0.000000
7.139551 -3.400250 10.521670 2.000000
6.444711 10.019456 6.337932 0.000000
12.599831 24.215121 6.181357 0.000000
11.767575 -6.228093 9.244166 0.000000
22.326820 13.434005 1.299313 2.000000
9.047569 23.087027 10.427506 2.000000
-21.297660 -18.547687 4.477543 2.000000
-11.197435 9.993504 4.915886 0.000000
22.621720 6.386981 12.271417 0.000000
22.345093 5.623336 2.674453 0.000000
-16.774709 -7.952268 2.836512 0.000000
21.180869 -7.096258 1.070351 2.000000
7.320110 5.527436 12.446041 1.000000
19.184895 4.198289 8.593527 1.000000
-17.276384 -18.984984 10.958653 2.000000
-16.389484 -9.609648 10.551060 0.000000
18.812516 -5.046283 1.293266 1.000000
-12.428283 12.672049 11.968823 1.000000
-19.109982 -24.400876 6.543306 2.000000
-14.537582 6.742473 9.102901 0.000000
-22.162482 22.743654 6.264469 1.000000
-24.609159 11.378499 6.348189 2.000000
24.351728 -2.691946 13.245186 0.000000
6.559171 -14.829590 14.555460 0.000000
-21.655374 -21.284792 2.131112 1.000000
22.047237 -18.716073 10.203311 2.000000
0.205897 8.105373 11.634360 0.000000
-22.097499 7.412750 6.656912 2.000000
-20.801943 3.349136 7.462477 1.000000
12.953938 -8.460238 4.012052 0.000000
-23.077814 -6.178716 14.727052 1.000000
20.563970 -22.529667 3.973245 2.000000
-16.371616 -4.288724 13.739579 2.000000
-3.589137 -6.497356 1.891716 2.000000
-4.133126 18.352874 14.795473 2.000000
0.227890 -24.925152 1.718680 0.000000
22.748545 -16.169328 9.245883 1.000000
24.421469 -0.911943 8.070049 1.000000
21.755275 -1.300621 13.349399 1.000000
-19.143013 -15.258051 2.267108 1.000000
-5.412185 14.063463 6.108454 0.000000
23.605392 -8.341721 7.482968 2.000000
6.805359 -3.010992 14.331684 0.000000
9.207685 -7.926181 3.078492 0.000000
16.377129 19.180680 4.299622 1.000000
2.301594 -0.363829 10.322117 2.000000
23.098210 7.213584 11.191854 0.000000
-19.484031 3.555070 8.696828 0.000000
20.405737 4.180703 9.991205 0.000000
12.576709 -9.926812 1.385939 2.000000
5.336342 -6.549742 10.015519 0.000000
24.054810 4.857804 10.597683 1.000000
12.413166 16.529868 9.055822 0.000000
-18.250003 9.781583 1.633465 0.000000
-6.776111 -4.911248 2.117033 0.000000
-9.837320 1.628668 8.853569 1.000000
-23.434984 20.330231 3.022314 2.000000
21.523245 5.479452 10.621600 0.000000
-19.680641 -19.162544 10.669228 1.000000
-11.699282 -7.339189 12.520742 0.000000
15.328768 -16.469054 10.219136 0.000000
-15.544347 3.628963 12.964690 0.000000
4.707918 22.895418 9.001066 0.000000
-16.061474 -6.883829 13.472940 1.000000
-10.428297 22.782301 0.756979 0.000000
24.959108 20.697291 13.859584 0.000000
1.746447 -10.404319 5.771876 2.000000
-19.486782 4.244575 14.518725 2.000000
-18.750896 17.402817 9.121960 0.000000
-22.290530 -21.505273 10.332133 1.000000
-11.196554 11.264034 9.456036 2.000000
-7.198298 -17.778685 10.785125 2.000000
11.602572 9.908268 13.217939 0.000000
23.361211 -18.207309 7.237988 1.000000
14.195401 21.641150 14.871520 0.000000
-20.700013 9.340200 0.335105 0.000000
4.403113 6.052728 7.342235 1.000000
0.541472 -9.083429 12.353077 0.000000
24.649074 -16.084543 6.540896 2.000000
0.450981 -4.369172 9.538051 1.000000
-8.907477 -5.796367 13.179386 2.000000
-18.371082 16.855027 8.042418 2.000000
-1.922646 11.676942 0.253974 0.000000
16.885043 20.230677 9.428359 2.000000
7.487751 -16.194569 7.298955 2.000000
-3.699573 19.642054 1.235427 2.000000
-13.229286 -24.863697 5.005081 2.000000
-0.563982 7.512910 6.470198 0.000000
14.084829 0.193433 2.821792 0.000000
20.431801 6.875864 3.083843 2.000000
-11.625424 -9.946421 13.457723 1.000000
-21.749477 -24.975477 3.550800 0.000000
1.103779 -7.200687 6.662279 1.000000
8.465542 16.448807 11.609111 0.000000
-5.250962 -4.750293 1.340973 0.000000
0.605001 0.388930 11.486778 0.000000
8.378465 -21.979726 1.386256 1.000000
-18.621594 -5.906974 5.385058 1.000000
-4.024008 -12.435072 10.746982 1.000000
-10.265368 22.235783 12.470372 1.000000
24.160059 -0.129521 8.575221 2.000000
-0.978003 13.382288 2.975678 0.000000
-19.768824 23.641138 12.969342 2.000000
5.490921 16.279813 0.541745 0.000000
2.869556 -5.157856 14.513204 1.000000
16.170962 -7.298801 0.713017 0.000000
16.835699 -4.114250 6.900270 2.000000
3.476259 16.903294 4.108293 0.000000
8.026528 -15.071777 14.795750 0.000000
-5.292963 9.657791 12.020538 1.000000
18.028233 -15.791449 2.323918 2.000000
14.117110 0.725709 13.923783 0.000000
9.009488 14.986898 12.846281 0.000000
9.037720 -5.703838 9.907491 0.000000
22.336578 -16.232883 3.326208 0.000000
13.691458 -10.003757 13.877823 2.000000
-19.720144 -16.697104 13.037486 0.000000
-6.708912 14.367608 8.945273 0.000000
7.229196 16.501777 12.158763 0.000000
2.019538 -15.323942 0.182869 0.000000
9.224792 20.713822 6.721173 0.000000
3.544660 19.946031 13.943324 1.000000
-8.843996 -17.011366 3.076141 0.000000
-21.907386 -23.431712 10.509101 2.000000
4.969817 -21.578541 3.253504 0.000000
22.106037 10.725604 7.842216 1.000000
16.034354 -3.958043 4.440190 0.000000
-20.548037 23.053159 8.850838 1.000000
-19.802784 24.700804 0.086627 0.000000
1.740857 3.383149 8.527998 0.000000
22.849357 9.165840 11.842661 1.000000
4.165479 -17.455615 4.492595 0.000000
-18.600123 -20.568631 9.013754 1.000000
22.014867 -2.236354 8.920471 0.000000
24.469293 -4.573883 14.434589 2.000000
12.457019 -0.331901 11.069148 2.000000
-0.205875 -8.729466 3.086371 2.000000
19.608026 -18.418947 13.796805 2.000000
16.570814 11.409473 2.176872 1.000000
-0.641869 24.977211 2.265127 0.000000
-8.898649 -4.971216 5.241343 0.000000
9.180435 -18.716298 13.375213 2.000000
19.299528 22.488383 8.896273 1.000000
8.204082 -0.781147 6.752616 0.000000
0.935500 24.584512 10.370660 2.000000
1.906986 8.687747 7.899555 0.000000
-21.240870 9.752301 13.120700 0.000000
-24.604594 11.495824 4.821178 2.000000
-21.528576 -2.587017 6.190953 0.000000
10.819660 -12.196399 1.338673 2.000000
-3.662837 22.133565 0.299038 0.000000
12.250510 21.406021 6.156402 0.000000
4.072936 -7.745677 3.955991 2.000000
-13.305772 -21.184184 9.847621 1.000000
0.328625 -17.275582 7.637748 0.000000
-2.298270 -10.862606 4.137669 2.000000
-7.355234 2.143493 6.324145 2.000000
-4.358156 12.484714 12.570187 2.000000
-6.843507 18.648723 2.285550 2.000000
8.160040 -17.890178 11.589406 0.000000
-17.201763 14.343861 4.942330 0.000000
-4.859959 -0.729532 13.850953 0.000000
18.678492 19.411679 2.040342 1.000000
1.779055 8.983724 6.021942 0.000000
-1.590452 -8.308889 2.283410 0.000000
15.984291 -20.375069 8.700781 0.000000
-13.906974 7.536112 7.316319 1.000000
-23.658122 -23.651391 3.332999 0.000000
-17.403297 15.893726 11.269644 2.000000
2.311523 -6.491987 2.640627 1.000000
-23.761329 -1.466683 6.797476 2.000000
18.657708 3.439406 14.371048 0.000000
9.683197 -22.841099 3.737819 0.000000
-18.688926 1.678053 14.678265 0.000000
-4.297013 -15.430608 9.117683 2.000000
-11.552814 -4.578289 5.927253 1.000000
-17.050846 8.684172 13.014246 0.000000
-21.828074 -18.188407 6.608418 2.000000
15.222002 -16.607137 0.230153 2.000000
12.072262 8.031583 6.156029 2.000000
17.137958 23.871401 12.750521 2.000000
-6.540907 -14.876632 2.670914 1.000000
-18.512864 -6.127263 10.977773 2.000000
-20.956844 -13.041819 13.996399 1.000000
-4.119104 -11.460197 3.647440 0.000000
12.515157 2.537018 6.886232 2.000000
22.914834 4.137396 9.297412 2.000000
-14.713712 0.519693 8.814262 1.000000
-17.036255 24.353061 6.933393 0.000000
5.202590 -7.724826 10.608933 0.000000
24.101904 -3.519328 8.102516 2.000000
23.735705 20.611287 11.169292 2.000000
-15.041411 16.978342 10.979982 2.000000
-10.388776 5.060299 5.012810 2.000000
-6.707346 -7.570894 0.345906 0.000000
-19.384768 -12.739133 12.192428 0.000000
-15.041212 21.124702 0.626484 0.000000
13.155469 15.917285 10.258285 0.000000
-23.128270 3.411765 7.902987 0.000000
24.688085 -5.903585 3.742625 0.000000
18.546460 -22.299270 9.627793 1.000000
-4.511397 8.401945 6.330993 1.000000
-15.248029 0.925580 4.258964 0.000000
20.141625 -3.845071 2.000112 0.000000
-21.483055 -1.389710 5.483298 0.000000
-18.179382 20.631912 10.720849 2.000000
18.356075 -23.341690 6.685901 1.000000
9.883398 -5.858195 5.114260 1.000000
-21.060296 4.119912 7.239675 1.000000
0.214534 -6.368385 2.174488 2.000000
-21.797686 -4.662446 11.413299 2.000000
-3.374291 3.743088 6.861211 1.000000
3.687713 -2.509936 4.004401 0.000000
20.901768 -17.611873 3.588182 2.000000
-21.487526 -0.153012 5.731159 0.000000
-14.737304 -21.583147 12.939092 2.000000
22.609508 -9.403954 6.949923 1.000000
23.077367 16.617216 10.573563 1.000000
-19.373097 -4.617984 2.846664 2.000000
20.532666 -13.575970 8.664024 1.000000
-22.606575 7.135655 8.363596 0.000000
-12.802757 -3.648724 13.407655 2.000000
-7.016028 4.699867 7.034523 0.000000
-14.834748 -24.206364 10.476648 2.000000
-9.294825 16.229644 12.808799 1.000000
13.465111 12.580459 4.554775 0.000000
-22.817216 24.488723 9.421862 1.000000
0.788062 -21.276096 4.213727 0.000000
-20.502383 -8.612840 2.538292 1.000000
2.594161 16.698372 5.839536 2.000000
-12.865431 16.367122 0.311546 1.000000
-17.901833 -2.573265 5.774318 0.000000
8.611717 -17.851571 9.938594 2.000000
-9.116295 -8.959568 14.961064 0.000000
-12.627743 -2.326192 14.098744 0.000000
24.821753 4.273345 12.546415 2.000000
-18.223274 13.598060 8.436260 0.000000
18.835281 17.205773 8.432692 0.000000
21.575660 18.256965 6.778135 2.000000
7.528083 19.233528 2.934286 1.000000
-12.956071 -21.320383 7.614355 0.000000
17.591962 9.430580 3.323886 1.000000
19.159672 -12.341031 9.762455 0.000000
8.429340 9.575806 11.277007 1.000000
-7.639739 -2.749926 0.949182 0.000000
-15.491245 18.566878 9.521712 0.000000
3.246017 -18.959107 3.436507 1.000000
19.206469 -20.782667 13.126757 2.000000
-23.424762 -7.130610 6.270409 0.000000
-24.349496 -3.450372 12.832872 2.000000
17.346418 2.025370 0.997056 1.000000
-14.220426 -0.520109 5.996654 0.000000
-5.101680 18.047375 4.701123 2.000000
0.416170 -16.920052 8.722432 2.000000
-2.983487 15.137162 0.301758 1.000000
22.750135 -13.319748 1.326269 1.000000
-11.560372 -6.171130 5.882572 0.000000
-10.808458 0.211043 8.348576 1.000000
21.326663 -5.428449 1.975743 1.000000
17.897883 15.164403 14.151505 0.000000
20.853965 17.828301 13.577737 1.000000
13.799144 -15.148680 8.484523 2.000000
-15.387426 5.839597 12.494286 2.000000
14.706107 -3.873812 3.839711 0.000000
-2.577880 5.495025 7.045679 2.000000
24.050166 -22.104163 8.639191 2.000000
-13.401500 -23.112367 8.429440 2.000000
22.105137 -16.136483 7.023659 1.000000
17.869454 -5.586882 9.025713 1.000000
-2.178383 -23.789196 8.479119 2.000000
19.615685 -16.325270 5.260090 0.000000
-6.815674 -4.308194 5.423049 1.000000
4.922363 1.135707 2.223623 2.000000
-19.726376 -9.696809 3.784611 1.000000
11.192249 -0.306620 4.977559 2.000000
9.089955 -20.958899 13.360900 0.000000
-17.550790 -9.758338 2.270348 0.000000
-9.996061 -16.624050 1.087573 1.000000
-9.921713 -7.217904 13.162029 2.000000
9.407806 8.358537 5.578256 1.000000
-22.444196 -18.546692 11.250085 0.000000
-5.849487 -24.303320 2.219560 0.000000
-12.237182 -6.294652 5.366976 1.000000
-18.453682 -2.121636 11.300596 1.000000
-22.175960 -20.475127 14.549569 0.000000
14.170984 8.322776 0.988717 0.000000
-13.444545 -6.682259 7.093280 2.000000
-14.271620 23.989540 11.443313 0.000000
-8.166649 11.311946 3.809535 0.000000
-21.795170 9.322745 6.999650 0.000000
-15.427923 17.789392 9.403479 1.000000
19.291555 4.609048 10.053457 2.000000
-7.515115 13.901104 7.033120 2.000000
11.546752 2.285644 1.359976 0.000000
16.739613 21.515049 14.176846 0.000000
9.680128 -14.436797 9.844345 1.000000
2.838944 20.033857 13.309024 0.000000
21.154230 -15.719117 13.430685 0.000000
4.451296 -3.141072 0.331456 0.000000
8.572823 10.030276 3.287147 0.000000
-7.230588 3.576502 2.012606 2.000000
18.843899 -14.111963 7.109278 0.000000
10.274293 2.329140 8.505931 2.000000
17.236961 7.810331 6.009099 2.000000
9.870756 -11.850749 3.384703 1.000000
7.174253 16.629739 7.550925 0.000000
-8.157567 -19.784044 2.986745 2.000000
8.311792 -11.097892 3.222768 0.000000
-7.939666 -19.160308 3.680549 0.000000
10.975784 18.892467 3.549986 1.000000
-3.087849 0.279954 1.507707 2.000000
-13.610953 -13.637720 5.925709 0.000000
-10.535464 24.463625 0.410069 0.000000
7.641442 -4.998680 5.688592 2.000000
0.806140 10.297508 3.608095 0.000000
-2.380954 -24.973121 9.560411 0.000000
-15.946693 7.127074 2.955694 0.000000
4.629059 -19.383104 5.423920 2.000000
22.630599 2.280846 10.781508 0.000000
-5.633592 -16.100395 11.797368 0.000000
8.638820 -15.926410 9.309168 0.000000
15.661623 -23.105084 7.547813 0.000000
17.855087 -8.668980 2.845969 0.000000
-10.480371 -23.281190 9.222469 0.000000
-5.654480 -15.854160 13.681378 2.000000
6.196775 -21.394281 8.388812 1.000000
22.837150 -11.718554 7.857272 0.000000
9.233372 10.280535 5.195597 0.000000
8.600892 -3.574646 13.326213 2.000000
13.513728 23.668964 5.618034 2.000000
24.369810 -17.355499 2.146649 2.000000
23.626790 15.473904 0.186057 2.000000
-19.482213 4.325299 0.558068 2.000000
10.722703 11.939474 6.796307 0.000000
-16.860132 21.964670 2.797133 2.000000
16.540220 18.640003 11.365127 2.000000
-2.642900 -11.593823 10.742867 0.000000
10.293097 -8.985060 3.297018 1.000000
-24.386844 -21.913245 2.187036 0.000000
-22.021247 -21.995257 11.172952 2.000000
21.892689 14.894979 7.466389 2.000000
24.661558 -7.695029 8.733662 0.000000
-22.951843 18.787734 9.473857 1.000000
2.793335 13.580466 8.466525 2.000000
18.485725 -24.902685 3.402390 0.000000
-6.399327 -1.899825 3.461226 2.000000
-22.451716 -15.317157 6.730312 1.000000
17.917081 -15.343107 2.051610 2.000000
-0.378662 22.102271 1.526440 0.000000
2.788182 14.784926 11.309745 0.000000
21.767645 24.291738 11.796879 1.000000
13.100321 15.651420 1.033249 0.000000
-5.216906 -19.309227 12.664913 0.000000
22.427431 12.016146 4.774585 1.000000
23.272560 -8.502795 5.774814 1.000000
6.254136 1.003755 8.570872 1.000000
1.792903 -8.619833 3.731804 2.000000
-18.803369 18.152730 5.321954 0.000000
12.196171 -7.483054 4.315768 0.000000
-24.118809 -13.801640 5.543286 2.000000
2.800471 18.831297 5.972336 1.000000
-6.167162 -0.373043 4.066839 2.000000
-20.736529 12.240119 8.915559 0.000000
-1.187442 -12.380095 4.998117 2.000000
-21.883499 -24.809317 9.731008 1.000000
10.774036 -15.371227 9.799159 2.000000
-9.214735 -12.499537 12.537457 1.000000
18.907477 11.733390 3.433111 0.000000
14.122480 -16.706713 13.379698 1.000000
-11.077949 -7.744810 13.537107 0.000000
10.324999 -19.731572 10.657816 0.000000
3.135028 16.259848 4.879918 0.000000
14.399842 14.085418 2.013119 1.000000
4.052268 -9.118429 12.683678 0.000000
23.899639 -11.173575 1.198906 2.000000
-8.465300 11.571654 13.303575 1.000000
6.370577 23.407743 2.925074 0.000000
13.952104 21.333450 12.110737 1.000000
-22.564500 10.131159 5.610555 2.000000
-21.410253 21.658543 11.757443 1.000000
-3.583663 -19.198691 14.124226 1.000000
18.561067 1.962555 9.348215 0.000000
2.020680 23.850454 2.483367 0.000000
16.643260 -16.550162 11.209034 1.000000
19.427414 -24.786915 10.177677 1.000000
-1.791245 19.279443 14.293782 2.000000
21.986465 -10.283483 5.626209 0.000000
15.472005 9.651779 14.136154 0.000000
16.497406 17.511817 2.615000 2.000000
-9.095048 13.441921 10.982657 0.000000
14.296681 18.306066 5.820191 2.000000
-15.226476 -24.415356 4.672605 0.000000
-19.035003 -20.563847 7.265497 1.000000
-11.923816 5.562956 6.891415 2.000000
11.874633 -17.957873 2.709639 2.000000
-14.193260 14.815717 7.680740 2.000000
7.952386 10.417392 10.534973 1.000000
-23.270012 -3.509315 13.323154 0.000000
-0.507616 -18.295906 6.333554 0.000000
-12.225926 -4.000549 12.529862 2.000000
-17.141525 -11.923249 2.783253 0.000000
2.273698 -11.354412 10.950723 0.000000
-12.319193 4.039253 10.143955 0.000000
14.963681 -17.908118 9.874510 1.000000
-18.593259 -0.726473 6.006182 2.000000
2.998946 -10.834933 4.553092 1.000000
-0.189261 8.652158 0.806922 2.000000
-9.239305 24.914163 6.767393 0.000000
3.565247 -11.470734 14.408898 1.000000
-2.628910 5.145410 2.801888 2.000000
23.435657 -17.361772 14.846223 1.000000
-5.701103 -3.210926 5.233209 1.000000
-17.528154 16.386728 5.305410 1.000000
14.469822 5.660650 0.255735 0.000000
13.830952 -12.533302 9.179257 0.000000
17.739961 -2.479854 9.934824 0.000000
24.861416 -19.076382 13.165982 0.000000
8.770019 3.313497 11.011119 2.000000
19.348399 21.780405 10.198612 2.000000
-16.111277 7.522313 8.431438 0.000000
-22.795330 15.555032 4.161746 2.000000
-14.978068 -15.660832 13.796257 1.000000
-5.280677 9.520171 12.954639 1.000000
19.307537 22.970657 4.749571 2.000000
-6.084295 3.932705 4.315939 1.000000
-10.687220 -10.169515 10.451343 1.000000
10.431886 -24.925541 13.941093 1.000000
-1.140925 23.720495 5.652914 0.000000
5.138510 -16.861447 12.360743 2.000000
4.307602 15.431470 8.801963 2.000000
-0.956768 -4.267600 12.868217 1.000000
17.000458 20.055846 5.678804 0.000000
-14.387727 -5.746160 4.242505 2.000000
-12.587618 -5.394562 9.154209 0.000000
11.966938 13.387740 0.265831 1.000000
-4.454091 -15.237230 2.103027 0.000000
-13.028670 -16.479359 10.483881 1.000000
15.276978 22.080539 7.314417 2.000000
-6.418152 7.822583 11.843587 1.000000
-1.694993 -8.842464 4.967484 1.000000
-4.026026 22.477003 4.187013 2.000000
-20.964523 17.868355 13.039246 0.000000
-18.568314 22.087077 3.112617 0.000000
23.530660 -17.592462 11.815296 1.000000
7.289399 5.342591 5.268259 0.000000
10.581374 15.647614 9.777365 0.000000
-20.712178 0.004314 8.124833 2.000000
-1.364143 -16.509424 12.490324 2.000000
-15.446142 -5.692533 10.747909 2.000000
13.087499 -20.893052 7.421249 1.000000
-1.906824 -23.991973 11.240752 1.000000
20.929711 -14.977133 12.119799 0.000000
-24.595665 22.788174 6.603361 0.000000
-19.541223 -17.554687 6.995241 0.000000
-24.679669 -2.926229 13.322159 0.000000
-5.508460 4.939282 11.196107 1.000000
22.381043 -20.979459 2.665254 0.000000
13.263786 -5.496427 10.814486 0.000000
-24.687571 -22.871761 11.216712 1.000000
-22.549994 10.575133 10.291827 0.000000
-12.842798 23.713944 10.088489 0.000000
-22.493363 -1.056152 5.303298 1.000000
11.839567 17.129205 1.038434 0.000000
14.842798 -22.438086 0.762364 1.000000
0.179866 15.211305 14.512451 0.000000
13.223390 -4.817952 6.046017 0.000000
-14.825832 24.775759 11.334803 1.000000
13.819955 4.215682 0.224589 1.000000
14.331801 16.680677 2.079029 0.000000
-5.705770 -4.866273 4.489105 2.000000
-21.021478 20.287004 7.504771 2.000000
-12.524379 -23.608018 4.189088 0.000000
17.230624 17.725362 10.492414 2.000000
-15.686441 -21.389245 3.216098 2.000000
-14.150637 1.793849 6.878616 2.000000
-3.267143 15.936070 4.092434 1.000000
20.303183 -8.674577 4.923548 2.000000
-8.400448 1.751763 6.131451 2.000000
19.454281 -2.879445 7.744463 0.000000
20.462093 18.436950 7.471467 0.000000
23.678856 -11.677297 6.225658 2.000000
24.792519 -11.981360 10.024126 0.000000
19.924806 -7.960532 6.559832 0.000000
7.719317 20.218715 2.583113 0.000000
-0.418811 22.046760 2.164027 0.000000
11.433754 14.160909 1.245911 0.000000
-12.612562 -17.913741 5.853577 0.000000
13.789754 -14.131631 2.975440 0.000000
6.878714 -14.423919 4.056748 2.000000
-23.624935 -19.779820 7.503535 2.000000
10.008186 -2.262307 8.132476 2.000000
11.188744 -15.415706 13.320579 0.000000
7.157440 13.248067 1.758783 0.000000
0.791336 -8.346759 4.252111 1.000000
8.119714 10.545592 13.736875 1.000000
3.660199 8.072548 14.806864 0.000000
20.090490 2.992234 2.434946 2.000000
-16.092470 7.318058 8.996241 0.000000
8.644827 1.018350 6.055386 2.000000
-5.967627 -7.274262 5.353421 0.000000
16.315026 -18.093766 14.183956 0.000000
-4.140449 7.652025 8.037661 2.000000
-24.440988 6.785541 0.793308 0.000000
20.317229 -0.198047 1.210702 2.000000
-13.648390 -24.621103 2.047289 2.000000
-4.930819 -12.742769 13.681577 2.000000
19.616713 -10.095461 0.931397 2.000000
-10.844428 -15.384981 13.678319 0.000000
6.373209 -22.666256 7.373265 0.000000
-10.223409 22.039159 14.702544 0.000000
4.909041 11.331506 0.303921 2.000000
11.896194 -4.323715 6.352203 0.000000
-4.760503 15.004808 2.550937 2.000000
-8.328652 -4.514745 5.976012 1.000000
-22.806814 -24.067695 10.764106 2.000000
-19.954817 23.432608 12.432003 1.000000
15.884386 -14.954272 14.578717 0.000000
-13.078411 5.566561 13.789099 0.000000
11.058259 -15.462090 14.390404 2.000000
-1.043397 12.084297 14.314315 2.000000
1.762142 4.115264 6.946722 0.000000
11.327276 -23.011194 2.291091 0.000000
-4.728171 -12.691325 3.586654 2.000000
22.387911 -10.449325 2.620829 2.000000
13.352641 6.986482 2.494293 0.000000
15.285000 -17.712523 1.539559 2.000000
5.769740 -19.278728 6.317566 2.000000
-13.366327 -13.347600 8.613675 2.000000
-8.815231 15.476111 4.400933 1.000000
-21.576097 10.607169 6.682150 2.000000
20.465747 -17.121046 2.346572 1.000000
-6.503509 -18.481162 6.286468 1.000000
9.998789 -14.761909 2.335627 0.000000
23.840773 20.395268 10.968338 1.000000
4.381790 -21.126284 7.820932 2.000000
20.378177 13.084876 3.890722 2.000000
14.212539 12.277982 3.201274 2.000000
-23.092796 -12.026468 6.311000 2.000000
22.602446 12.278192 11.088507 0.000000
5.803651 2.856776 3.413174 0.000000
6.603024 -9.533533 1.497336 0.000000
-23.840585 12.336100 10.036182 0.000000
0.105206 9.616371 3.014562 2.000000
19.102402 14.942015 9.712992 0.000000
22.631961 23.671628 12.972228 2.000000
19.553395 -15.994639 14.378521 0.000000
-19.551854 -14.787058 10.397770 0.000000
-18.357658 2.835853 6.326572 1.000000
-1.857886 -0.551538 11.880074 2.000000
18.627495 -3.571216 3.908721 0.000000
5.241781 5.293556 12.332352 1.000000
-7.090353 -15.214322 11.524388 1.000000
-0.323869 -24.129861 1.483765 2.000000
17.558935 -6.156232 1.720680 0.000000
-19.051178 24.677590 2.122832 0.000000
-10.070091 13.784450 1.520888 1.000000
10.290232 -6.349540 6.509665 1.000000
-0.356013 -10.517845 8.341939 1.000000
5.397534 16.136190 1.065367 0.000000
15.944771 2.836159 11.675993 1.000000
14.636422 7.024386 8.167385 2.000000
2.712576 15.000503 6.357695 2.000000
-3.240937 1.579555 8.072863 0.000000
15.403428 -4.220239 14.982525 0.000000
-21.332800 2.081988 9.140854 0.000000
4.281824 18.414713 2.526130 1.000000
-18.408030 -16.859707 8.478441 0.000000
17.564053 -17.382679 14.474346 0.000000
-1.202399 -24.757710 12.439069 1.000000
14.370907 -23.568716 8.199492 0.000000
-22.444515 -3.757741 12.172383 0.000000
15.138728 15.136473 13.202083 0.000000
15.208176 -15.013280 3.562230 1.000000
18.196112 16.850414 8.387593 0.000000
-4.106584 6.134292 3.402177 1.000000
2.547387 -20.666442 12.429946 1.000000
-3.083779 13.032805 6.055196 2.000000
4.416012 4.851783 5.209990 1.000000
10.084502 -21.035387 11.994264 0.000000
-22.305082 -5.880581 1.800380 0.000000
3.634789 -24.839325 6.804913 1.000000
1.103040 -15.178763 14.795798 2.000000
-23.086157 -12.387557 7.447309 1.000000
23.928734 -0.987932 11.227930 1.000000
-6.107871 -21.328449 7.051985 0.000000
-21.351017 -14.151036 4.631269 1.000000
11.270049 22.248994 11.049959 1.000000
18.478600 -17.886868 0.965617 1.000000
5.122196 -13.611496 4.743199 0.000000
13.724568 3.146492 14.621494 0.000000
-6.875215 -6.248460 3.076020 1.000000
-5.721461 -1.178604 1.234743 0.000000
-1.198460 -23.976545 9.586594 1.000000
-0.014448 17.451861 6.598182 1.000000
11.387665 14.900634 10.050250 0.000000
-22.241018 23.049561 3.924465 1.000000
3.073604 4.234368 0.558437 0.000000
6.822437 -12.271957 12.497544 2.000000
-15.257827 -0.756998 14.346670 0.000000
7.508101 11.850547 9.418793 2.000000
18.611376 10.679655 9.259118 0.000000
18.012065 21.221740 9.751367 2.000000
1.820682 -4.095124 11.708533 1.000000
10.805629 -21.934713 14.348089 0.000000
10.189059 -4.944131 9.187349 1.000000
-23.797593 -12.495727 12.162005 0.000000
3.990122 -23.627779 10.358785 0.000000
12.156155 -23.211885 5.411701 1.000000
-22.542562 -19.662537 9.309493 2.000000
13.837773 -17.734908 12.061924 2.000000
19.399657 -24.289291 0.386137 1.000000
19.107267 -19.655307 5.724976 2.000000
0.413323 1.268961 14.262694 1.000000
-4.493722 -19.920161 6.950834 2.000000
-10.335499 13.589273 9.870736 2.000000
-0.644550 17.543667 12.826557 1.000000
-11.816793 13.205113 7.216674 2.000000
16.530651 -9.885100 2.693637 0.000000
5.998550 24.913381 1.656034 1.000000
-8.544714 -11.403910 14.604976 2.000000
-2.300221 -13.722670 14.623238 1.000000
21.844977 15.570979 6.341240 2.000000
8.515667 23.765127 3.464363 2.000000
9.811969 -9.345527 2.319371 1.000000
-23.912176 15.994916 2.877382 0.000000
-15.940045 -4.156890 2.041698 0.000000
-23.815887 -4.423677 0.298347 0.000000
2.027084 1.462452 4.359940 1.000000
8.273200 -19.782656 12.125344 2.000000
-9.943486 20.803900 11.441839 2.000000
-9.318085 14.951502 6.984377 0.000000
20.090394 -13.926198 2.940124 0.000000
-13.084692 9.953035 10.951434 1.000000
-7.453196 18.818976 1.094362 1.000000
10.185035 14.831195 9.408661 1.000000
-18.822644 -21.283004 7.942898 2.000000
7.317823 2.413792 3.144048 0.000000
11.098168 -11.582503 11.545707 2.000000
16.963367 -17.009043 12.633710 2.000000
-15.220434 13.739289 9.113870 1.000000
3.067951 -5.193642 10.952303 0.000000
7.654971 -6.967518 10.533097 2.000000
19.941565 -7.467408 10.748800 1.000000
5.176626 -16.033689 3.653153 1.000000
-18.731204 2.677378 3.240534 0.000000
24.682053 12.130525 12.239556 2.000000
-7.229890 -1.314964 7.199270 2.000000
6.930532 5.181872 14.782137 1.000000
7.992163 18.788492 12.492884 0.000000
-12.763596 -5.213154 1.181626 1.000000
11.628053 -8.832190 5.821872 1.000000
-18.913124 12.947882 7.353440 2.000000
9.134874 -24.858877 0.682642 1.000000
12.178115 5.908687 13.308176 2.000000
7.972399 21.884540 8.661307 0.000000
-4.034758 -6.216676 3.470384 2.000000
14.584294 -8.206888 5.627966 0.000000
-8.155401 -12.856473 4.550273 2.000000
-16.069150 11.813057 13.893000 1.000000
22.463972 -2.676191 3.282433 0.000000
10.355909 13.416476 1.355267 0.000000
-1.101909 -23.384338 2.623819 0.000000
17.300737 -10.137574 12.325716 1.000000
-0.936606 21.342354 5.429575 2.000000
-12.718849 -9.346295 14.995969 2.000000
-23.295093 -9.296917 5.218531 2.000000
-21.034286 -3.950345 3.814962 0.000000
9.463919 8.446294 7.470879 1.000000
-13.340880 21.242061 13.834025 0.000000
-5.847000 -9.694724 3.644621 2.000000
-18.786196 -16.705844 7.529084 0.000000
1.129196 -23.892656 13.841888 0.000000
10.522535 -16.614760 3.945469 0.000000
-17.581260 15.752946 10.280169 1.000000
-19.077542 -13.532053 3.474107 2.000000
-11.804047 -11.016693 13.440706 0.000000
-6.957697 -22.947325 9.623385 1.000000
-3.269775 4.981797 7.983693 0.000000
-8.618731 9.467999 3.950156 2.000000
-6.542062 -3.512568 13.014737 0.000000
-21.593419 24.031888 0.994933 0.000000
24.896607 -22.048933 5.948627 0.000000
22.656592 -1.552991 12.584606 1.000000
15.931679 -5.928065 12.146421 0.000000
-12.538107 -4.121305 5.033319 2.000000
0.338628 -22.779458 2.512771 2.000000
24.410096 -10.820394 2.300266 2.000000
-3.665007 -0.592453 6.722118 0.000000
-18.960787 18.513319 11.974779 0.000000
24.723678 10.099595 7.293798 1.000000
-8.878168 -18.212159 5.738422 1.000000
1.006260 -22.166061 5.211554 0.000000
-1.094770 -1.866162 11.335980 0.000000
3.144333 5.030043 9.530952 1.000000
0.662300 11.009645 2.061428 1.000000
-7.042591 -5.474349 0.495063 2.000000
-20.391239 -23.228105 10.603831 0.000000
2.694948 -16.000381 10.774600 1.000000
-23.587339 -1.016847 6.757768 1.000000
-2.552797 -2.428351 2.206766 1.000000
-23.379284 -18.894234 8.203117 0.000000
12.516426 -5.263904 9.636036 2.000000
10.315724 16.953813 8.209991 1.000000
21.680562 -13.065175 13.564022 0.000000
-21.089428 -0.055408 13.468196 0.000000
-4.994561 24.636642 5.455113 2.000000
19.675803 21.647502 0.068634 1.000000
4.915296 -0.659280 6.414353 1.000000
-9.360307 13.647039 2.613338 0.000000
20.807740 -3.729163 11.015517 1.000000
15.488392 -5.529110 3.975327 0.000000
-10.869395 13.926904 4.692398 0.000000
6.100751 7.747944 2.637291 0.000000
11.626463 -10.900604 11.381772 0.000000
-24.448175 -8.203005 3.413211 1.000000
-12.184714 -11.731213 12.476037 0.000000
11.647641 2.001118 0.875751 2.000000
9.996017 -15.438747 9.408699 1.000000
10.444044 -10.178789 1.560239 1.000000
15.430717 -24.663301 0.675388 1.000000
-12.282484 5.205059 8.346317 2.000000
16.643380 -4.150084 14.528408 0.000000
-20.518955 -1.574443 5.497338 1.000000
-17.405980 -23.902682 7.731549 1.000000
20.586177 -17.188797 10.125872 0.000000
-5.210733 8.635490 1.701226 2.000000
-14.094865 -18.561648 7.010197 2.000000
20.717726 3.296349 1.792280 0.000000
-5.154822 -5.239459 14.619329 2.000000
1.573469 -12.154190 3.602023 0.000000
-19.525317 -12.053331 10.815413 0.000000
11.356364 -14.107557 11.870873 2.000000
-21.461816 0.419877 0.208216 2.000000
22.989072 7.471001 12.248297 1.000000
24.779990 22.279501 0.580021 2.000000
-8.352665 15.652454 9.800075 2.000000
-9.382801 -4.008546 9.262434 2.000000
-2.830510 23.649914 9.097229 2.000000
15.817639 -4.702999 9.427418 0.000000
-16.442257 -7.845259 4.585217 2.000000
-10.267836 -22.896765 8.817365 2.000000
2.133587 -16.065491 2.681627 2.000000
16.604769 -12.851824 14.015797 0.000000
-3.663245 10.252637 12.156197 1.000000
-3.142122 24.697725 6.867095 2.000000
2.703472 17.718722 7.126289 1.000000
-19.448221 21.506913 2.478549 2.000000
20.189051 -0.940780 11.098535 2.000000
-5.155230 -7.136286 11.948628 1.000000
1.106451 -23.028786 11.289860 0.000000
19.833208 -10.966589 12.465962 0.000000
23.692705 12.427490 7.529819 1.000000
15.139676 4.979646 4.681077 1.000000
16.945911 -19.636071 14.409526 0.000000
11.296197 8.777641 4.289429 2.000000
-24.460125 20.328221 4.472426 2.000000
19.527723 -6.561802 4.931744 2.000000
8.317377 15.042773 1.986751 1.000000
-13.201322 -20.582643 4.415421 0.000000
-8.733244 21.087263 13.066123 2.000000
-23.065360 -4.006462 8.463511 0.000000
7.551145 -14.548759 12.082344 2.000000
12.384528 1.878786 4.904555 0.000000
17.160602 7.031008 14.219063 1.000000
-20.267358 6.810579 0.143499 0.000000
-16.238759 14.506274 6.560226 2.000000
-9.633746 -16.898487 9.712531 2.000000
2.238589 22.164612 1.281950 1.000000
-14.760896 -14.517504 9.790837 1.000000
0.660456 -24.945640 11.512348 0.000000
14.154739 14.329693 4.176035 2.000000
1.247345 1.098398 5.375413 0.000000
4.976800 7.017989 6.540123 2.000000
21.929043 -16.760637 5.704836 2.000000
17.703490 19.605119 12.412699 0.000000
-13.108198 9.284852 5.952775 2.000000
-15.563065 18.952838 6.878878 1.000000
6.373787 12.047749 1.170529 2.000000
0.950641 16.033873 11.611173 2.000000
11.151372 16.961726 10.269526 1.000000
-24.990594 23.345913 2.858652 1.000000
-7.700054 20.473597 1.380365 1.000000
-18.461175 -24.430836 1.506252 2.000000
1.537575 -5.660277 7.470346 2.000000
-21.455255 -19.073123 1.227580 1.000000
-23.584879 -0.686912 4.346567 2.000000
-12.010600 -22.297764 3.721986 2.000000
-13.933402 24.495408 10.336957 1.000000
9.905290 19.545757 2.353574 1.000000
-4.135388 19.303628 8.682001 0.000000
-15.080972 23.833454 9.104682 2.000000
21.197386 3.237888 14.795828 0.000000
14.516753 3.014666 1.458960 0.000000
-1.897939 12.229314 1.400274 2.000000
17.781714 -11.718007 11.905059 0.000000
4.003834 -4.434822 8.686223 2.000000
-24.180718 -23.741661 5.163987 0.000000
24.080862 11.812186 0.323851 1.000000
24.690593 4.554715 12.758539 0.000000
14.993069 24.694283 9.689415 0.000000
2.637469 17.778525 6.332586 0.000000
-19.047333 -15.566548 0.074541 2.000000
19.098068 -18.745954 10.145330 0.000000
0.409656 21.522668 11.193650 2.000000
-13.513818 -5.138568 10.272611 1.000000
21.760633 9.398578 4.897814 2.000000
-15.088834 -15.843877 10.536871 1.000000
20.023151 23.441542 1.687523 0.000000
-7.331058 -6.330694 5.587795 1.000000
-12.772454 11.306913 5.136113 2.000000
-12.001836 -20.077262 14.662075 1.000000
-17.399911 -24.707232 1.396822 0.000000
-1.348251 0.079275 3.020279 0.000000
-12.087900 11.069818 10.415122 1.000000
7.861497 23.929105 3.267517 2.000000
15.458203 -12.564203 13.184484 0.000000
9.144442 7.841540 6.661985 2.000000
12.140275 15.681552 2.397426 1.000000
-18.192715 -1.337339 4.278797 1.000000
-22.849311 -20.193794 11.504561 1.000000
-24.392872 22.730131 12.241413 0.000000
1.984630 8.111118 7.334281 1.000000
-15.035420 -9.417780 5.794321 1.000000
-14.670677 24.136468 4.515913 1.000000
4.047133 -5.209304 10.477672 0.000000
-9.806369 -9.460046 4.446446 1.000000
-19.607361 -17.199998 8.320057 2.000000
14.896158 -6.979621 4.521037 1.000000
-24.076220 -13.487594 7.192536 0.000000
-2.434774 23.858224 10.297649 1.000000
-6.091815 -1.766770 4.468703 1.000000
-24.896926 -11.659263 9.471307 2.000000
-0.738054 -7.184462 8.220249 0.000000
23.451333 19.893132 6.001869 0.000000
9.803848 -12.017696 5.559666 0.000000
24.484677 18.913908 3.474066 1.000000
-7.852742 -16.312227 0.114365 0.000000
-5.254496 -7.315044 5.182112 2.000000
9.819523 0.443602 7.486869 2.000000
5.119632 18.636752 7.266138 1.000000
-15.145044 21.270889 1.288437 0.000000
15.805540 10.920463 14.005086 2.000000
-3.945919 -6.414179 3.074751 2.000000
-19.479203 -15.228875 0.815389 1.000000
10.253539 17.004353 1.466814 1.000000
-2.627243 11.729184 13.582645 1.000000
-13.098749 -14.122215 12.400613 1.000000
-14.943447 -5.409357 1.906929 1.000000
-24.263661 -3.208107 8.657889 0.000000
-7.954346 23.156617 14.948126 1.000000
-4.119514 -1.466368 7.144314 0.000000
13.375769 24.060367 5.426531 1.000000
15.670926 21.454021 8.949939 0.000000
-17.164344 3.965024 4.222057 1.000000
-9.548203 -7.628641 0.497824 2.000000
14.530144 4.458167 13.735132 0.000000
5.313429 -17.904623 14.752940 2.000000
-13.743675 -8.027957 6.481931 1.000000
20.029363 -18.030026 6.324926 2.000000
-15.100953 13.903949 14.593330 1.000000
0.356089 21.560549 9.478301 1.000000
23.209962 23.830329 5.264094 1.000000
16.682373 -10.839381 12.891318 0.000000
22.929055 -7.426403 8.133960 0.000000
-8.715513 -16.872642 10.080125 1.000000
5.875460 1.807683 12.149494 2.000000
9.367270 -1.125773 5.459311 1.000000
-1.904267 10.131525 13.755073 1.000000
-3.859360 11.009663 1.360776 0.000000
-7.142754 -7.073089 12.364457 1.000000
-3.094111 18.710907 14.549359 1.000000
2.761963 10.775938 2.733764 0.000000
18.758715 -4.358487 11.361090 0.000000
-3.691174 17.433283 10.483633 0.000000
12.894570 -4.328634 14.849992 2.000000
-4.825532 -16.542940 7.179839 0.000000
-17.335947 -1.293383 0.009014 1.000000
22.959389 -13.095423 0.063554 1.000000
13.854502 15.070498 2.377629 0.000000
21.707116 -24.462164 4.016667 0.000000
23.123608 3.661545 12.177788 0.000000
-14.843837 -7.483635 4.946413 1.000000
-22.521570 -13.161506 1.516267 1.000000
12.531727 4.932476 10.203847 0.000000
24.053095 4.064296 4.189096 0.000000
21.487576 -20.793777 1.233525 2.000000
-17.251628 -20.445298 0.624227 2.000000
-10.390772 -9.802921 3.895751 2.000000
5.454895 -0.898484 11.147752 0.000000
6.204336 -10.572053 6.110911 0.000000
-13.708767 12.944380 11.043299 1.000000
18.044428 21.914084 10.026934 0.000000
-17.086740 21.594757 5.593808 2.000000
-5.670716 6.991203 5.132096 2.000000
-9.350938 -10.049747 0.806170 0.000000
13.460548 -15.171248 4.660605 2.000000
-7.048251 10.979881 13.011519 1.000000
-14.478904 21.053069 11.642267 1.000000
-23.017957 -1.945401 11.919996 2.000000
-21.833972 5.966706 4.584584 0.000000
-1.043890 22.579847 9.250108 0.000000
3.991524 22.224043 3.565335 0.000000
-19.999227 -16.654321 12.844536 0.000000
-2.422683 22.958608 14.833026 0.000000
-17.166634 -14.387690 10.236931 0.000000
-5.474844 -2.471665 4.718538 2.000000
-17.796344 -16.633520 5.446922 0.000000
18.218310 0.656301 6.811917 2.000000
-4.451280 -21.861305 9.330136 0.000000
-14.851837 -11.311541 11.381254 2.000000
-17.772184 -12.485818 14.716559 0.000000
3.679683 -7.571861 12.112944 0.000000
9.583205 24.034734 5.050015 1.000000
1.839716 -23.824049 9.992173 1.000000
-10.735318 -2.921317 1.115261 1.000000
-21.557993 -23.241854 3.959012 2.000000
-18.369027 -20.631450 9.602177 0.000000
-8.324343 -6.107792 6.910614 0.000000
4.025540 22.707062 2.153290 1.000000
10.146133 -12.604253 7.627758 0.000000
23.001377 -14.257333 10.093962 0.000000
17.093520 19.984054 11.332049 1.000000
-9.735470 1.250999 14.178915 2.000000
4.602627 -8.631860 11.429242 1.000000
-3.128454 12.857678 7.342225 0.000000
-23.007845 -11.389085 10.354996 0.000000
-23.454821 -11.861517 4.083437 1.000000
8.899589 -7.443999 0.013943 0.000000
3.697468 -2.337201 14.978915 1.000000
11.262613 -24.089831 8.395433 0.000000
-8.393088 -2.047127 13.315797 2.000000
22.265820 1.085525 2.023131 2.000000
-16.771637 0.841530 13.757390 2.000000
10.721451 20.150486 13.672876 0.000000
-17.990822 -5.818216 14.758906 1.000000
-16.890944 -10.627042 4.503230 0.000000
-7.183814 4.086446 14.170853 1.000000
-1.835290 8.880835 10.689189 1.000000
18.513863 -20.328976 11.683449 0.000000
12.616679 -15.413546 0.996894 1.000000
-22.215291 18.429331 1.206747 0.000000
18.747135 -16.120058 2.744757 0.000000
12.702761 5.548034 2.089257 2.000000
-21.091929 -5.102800 3.151738 0.000000
-4.625432 14.754305 12.551951 2.000000
2.673058 -16.105341 5.669883 1.000000
-20.982576 12.931261 10.486307 1.000000
-8.271233 -9.273769 1.222586 1.000000
-9.732834 -12.288157 1.512097 1.000000
-12.248260 20.906023 4.482100 1.000000
5.207276 16.368909 9.770229 0.000000
-15.056143 22.342346 2.091614 0.000000
17.729112 20.536030 14.279048 0.000000
-19.656967 8.055840 13.814975 0.000000
5.452480 -7.139205 13.856798 0.000000
1.098535 -10.841167 1.517531 1.000000
-11.471924 -20.494043 0.645513 2.000000
-17.420536 -7.338875 9.348718 2.000000
-4.537928 2.123010 3.658706 2.000000
-7.325025 2.139772 14.097756 2.000000
6.152251 -2.362551 3.326789 1.000000
16.239056 16.522656 7.168568 1.000000
-19.774891 19.165381 9.528386 1.000000
2.596981 -3.915309 7.305190 0.000000
-13.961459 17.820611 3.967987 1.000000
-14.776312 14.192265 2.971463 1.000000
-6.071070 11.135016 8.140381 1.000000
-6.640229 -4.388258 11.538431 0.000000
4.765196 9.066699 7.272761 0.000000
-19.219750 -2.448836 4.889779 2.000000
1.950073 -21.603045 3.249887 2.000000
-17.475902 12.938660 13.225742 0.000000
-4.895650 6.126570 7.064886 1.000000
16.196404 3.587681 0.453123 0.000000
-23.181959 -8.546425 10.383550 0.000000
22.594155 -0.255159 8.477945 1.000000
0.264340 1.810210 10.134590 0.000000
11.601606 4.746988 14.868783 0.000000
-8.813321 -6.628834 1.164579 0.000000
15.112503 22.176401 9.051453 1.000000
-7.300201 -7.066472 7.461084 1.000000
-16.378996 -1.498361 8.850660 1.000000
-13.628354 0.014856 0.715688 0.000000
18.077930 16.998114 2.697704 1.000000
23.256635 21.742720 11.266151 2.000000
18.020348 9.006759 3.705239 0.000000
-13.375451 -2.293331 12.660162 2.000000
7.491935 -14.126111 1.492370 0.000000
-0.411484 -24.854958 12.715314 2.000000
-4.197868 19.955545 7.951643 2.000000
-17.769926 -12.797692 11.011703 0.000000
10.357659 -18.428810 5.609789 2.000000
22.318883 16.614401 4.336266 0.000000
19.900062 4.595712 11.772377 2.000000
-23.775266 -23.487560 12.364519 2.000000
0.879607 -0.665662 7.358030 0.000000
-9.102787 -2.188664 10.041849 2.000000
6.438844 -23.196611 11.275492 1.000000
-12.275802 -8.972322 4.714821 1.000000
-10.470323 6.834132 1.003193 2.000000
-24.061262 -6.046184 4.424717 0.000000
13.830960 -10.569848 14.355016 0.000000
21.421186 -23.965279 10.013514 2.000000
7.116100 9.405093 6.817847 0.000000
1.205419 9.786410 4.178735 1.000000
4.343595 22.930082 6.693986 0.000000
-24.039590 -10.036372 7.921071 1.000000
-1.237358 14.108429 3.776397 2.000000
7.047171 -22.211106 5.813769 2.000000
-12.276588 -10.433951 11.070119 1.000000
13.642203 4.271310 12.847800 1.000000
9.425957 -9.241124 8.439398 1.000000
-9.017790 10.093111 13.884473 2.000000
23.697659 5.631442 14.725817 0.000000
-5.755062 -14.220238 1.514359 0.000000
-15.513300 -0.213921 8.296513 2.000000
11.863778 11.598203 1.540148 0.000000
-1.786946 11.707421 13.964042 0.000000
-19.470020 21.314595 5.245214 2.000000
10.488276 -21.531784 10.917208 0.000000
-18.185900 15.192982 5.465610 0.000000
16.995026 -5.845147 13.650867 0.000000
15.529028 21.954437 7.872807 0.000000
12.243797 17.582940 13.245205 2.000000
16.132935 -9.240922 12.819922 1.000000
22.963985 16.842750 0.879534 0.000000
-7.513202 -17.333813 3.461865 1.000000
-4.502586 -8.466539 14.067618 0.000000
10.313689 -21.899561 12.270912 2.000000
1.641332 -4.164537 2.201082 1.000000
-1.660224 24.201729 1.372427 0.000000
-19.038625 -1.758315 2.333748 0.000000
-9.673207 18.438472 11.088788 2.000000
-11.438977 -1.796428 3.006244 1.000000
6.345277 16.759933 5.145643 1.000000
20.630997 0.521664 1.040340 1.000000
-11.374832 -14.855412 13.078512 1.000000
9.595409 -16.882470 2.887141 1.000000
16.828444 -12.851631 1.682660 0.000000
5.206643 -10.307424 12.964434 2.000000
0.129790 17.132675 9.193982 2.000000
-21.603314 -17.545735 2.194368 0.000000
-24.280219 -11.643265 2.702516 0.000000
2.001373 18.565021 7.149702 0.000000
6.739976 -3.459554 3.173718 0.000000
-8.685019 21.286176 14.157159 2.000000
-10.410277 7.052611 8.867621 0.000000
-18.108530 11.784089 7.338471 1.000000
4.413888 -21.124118 2.124849 2.000000
4.931937 -15.146186 0.924162 0.000000
11.850609 3.061531 3.960674 1.000000
-15.392233 -14.570349 10.269299 1.000000
23.860892 19.661873 5.421303 0.000000
5.860889 -20.110818 8.732463 2.000000
-12.614459 23.058886 14.559004 2.000000
-1.701250 14.722557 0.313055 2.000000
9.166225 -22.717005 0.694122 1.000000
22.410926 -1.904339 1.657360 1.000000
-0.820954 -9.705230 8.234030 0.000000
-7.966575 -7.194389 5.078553 1.000000
8.540228 -14.867981 0.394198 2.000000
-18.116704 7.503129 12.471915 1.000000
-12.266240 1.938653 2.719915 1.000000
-15.740716 -22.433691 12.050864 1.000000
-8.454996 5.860119 10.466793 1.000000
12.483186 13.863573 8.505440 1.000000
-12.340504 16.653115 1.666163 0.000000
-23.993588 -19.961801 3.559579 2.000000
