20.610764 13.706156 2.529900 0.000000
0.739419 10.354177 11.925885 1.000000
20.203610 -4.761708 5.706542 2.000000
-18.083184 11.887613 3.381186 1.000000
-2.750443 12.765908 9.747110 0.000000
13.760258 13.493203 13.332833 1.000000
-14.142182 -0.557704 4.578964 1.000000
-0.797043 -17.487860 5.658277 2.000000
10.214963 19.407461 3.246109 0.000000
15.674500 9.204327 7.670029 0.000000
-18.535231 -2.321124 12.255779 1.000000
-21.953068 -18.457794 3.943977 2.000000
-0.984305 -3.657038 4.134129 2.000000
-14.417380 -2.431656 8.048026 2.000000
-7.536980 -2.327354 3.830678 0.000000
-24.730359 -8.494654 9.867503 2.000000
-20.449210 -23.025697 0.389674 0.000000
12.668226 5.410525 8.238050 1.000000
1.071059 21.754922 7.202505 0.000000
-11.120849 1.184789 4.073163 2.000000
5.154431 7.122931 11.826758 1.000000
8.314316 4.256516 8.561017 0.000000
-6.960213 -17.548631 7.883917 0.000000
0.720789 14.612965 1.337811 0.000000
-7.768732 -20.334382 0.719913 0.000000
-16.864143 3.777774 1.053770 1.000000
24.199415 -22.019318 13.240067 1.000000
14.152343 -18.839249 3.763201 0.000000
14.787303 -9.756406 3.116593 2.000000
1.072153 8.911056 4.559348 0.000000
16.649868 -8.832143 12.744499 1.000000
16.033766 22.566682 5.033695 1.000000
-22.624385 -1.864453 8.732489 1.000000
-2.077206 -23.746446 3.911743 1.000000
23.342247 17.115527 3.473578 2.000000
-16.761111 -2.173083 0.592335 2.000000
-5.720922 19.183578 5.743910 0.000000
20.762563 8.176988 3.388517 0.000000
10.579659 -4.143746 12.401438 2.000000
4.740637 -16.959868 14.695202 2.000000
-21.069089 -4.639541 10.179139 1.000000
-7.277889 24.037086 7.968239 0.000000
22.501238 5.616125 2.173159 0.000000
23.965637 19.638081 0.211082 0.000000
2.594706 21.745258 3.705069 2.000000
-14.812238 2.688870 2.707576 1.000000
18.417995 4.565071 1.456366 1.000000
-2.752574 -14.913754 3.351366 2.000000
-4.083889 4.512719 9.878426 0.000000
23.972299 -10.240904 4.227579 2.000000
-11.619942 -22.046698 8.347862 2.000000
3.334533 -21.550446 0.944214 1.000000
16.201457 -12.816887 9.438635 0.000000
-16.848560 -17.686259 1.993919 0.000000
-18.977350 -20.269162 10.694317 0.000000
12.043582 -9.724921 6.896460 2.000000
10.665722 10.402472 12.056380 1.000000
-22.939652 -1.977308 2.437242 0.000000
-24.873644 4.472073 13.390225 2.000000
-13.764645 -5.995113 9.731506 1.000000
5.340499 -15.679869 10.652887 2.000000
-18.351002 -7.720237 3.243404 0.000000
-10.804919 -6.259995 12.885760 2.000000
-4.988073 1.215455 10.069596 1.000000
-24.361953 -11.428164 5.774748 0.000000
23.866437 21.191772 6.510947 0.000000
-17.295056 -4.898242 11.588402 2.000000
-7.119615 18.195486 9.765708 2.000000
0.145859 9.086911 6.353537 2.000000
20.458354 14.573148 8.454194 0.000000
22.260511 9.454944 9.161987 1.000000
12.310632 6.989988 5.003814 0.000000
18.114274 6.783874 9.403460 0.000000
21.028078 -24.695983 8.402679 2.000000
10.531579 -10.455669 9.903751 1.000000
-8.773117 18.818388 0.850916 1.000000
0.830676 12.486807 14.881431 1.000000
23.104190 -16.929928 5.671587 0.000000
14.545478 16.579406 10.566900 1.000000
12.304623 7.749885 10.915248 0.000000
-10.790733 -11.411885 8.909405 0.000000
-6.228338 21.474337 3.737285 1.000000
23.722843 -21.515039 2.200395 1.000000
0.690843 19.829269 11.264702 0.000000
22.901742 -0.463632 12.322128 1.000000
3.377734 12.082797 8.402274 1.000000
-7.193962 14.304178 6.767729 0.000000
-2.193758 -22.998072 12.669421 0.000000
-7.434422 10.128578 6.212924 0.000000
23.421494 -17.557665 10.085431 1.000000
5.251190 -13.351152 14.177058 2.000000
15.336540 -1.481541 11.985604 0.000000
-13.759847 14.716391 6.047609 1.000000
23.734959 -6.643178 11.097265 2.000000
-18.703528 -8.509931 12.431297 1.000000
-19.506833 8.567191 0.484444 0.000000
-7.148377 -13.836203 12.880122 1.000000
10.496532 -21.926825 4.865975 2.000000
21.282184 6.271587 2.291254 2.000000
-22.797188 -3.416542 4.759167 1.000000
13.043236 -0.530512 8.569380 0.000000
-7.049636 -17.738954 9.310314 0.000000
10.923753 9.660516 4.151007 0.000000
3.614988 -14.420978 4.860105 2.000000
-4.449670 -6.758911 11.614786 2.000000
1.138807 2.738067 6.351775 2.000000
-6.130455 23.227928 2.423169 2.000000
-13.923537 -2.637399 7.284777 0.000000
11.910231 -24.100265 3.195008 2.000000
14.823522 14.483197 13.527654 2.000000
-15.027131 22.842682 4.384190 2.000000
-16.078963 6.303316 4.362288 2.000000
-15.661982 -15.964680 14.729695 0.000000
18.527715 0.200463 3.017218 0.000000
16.268938 -14.246747 12.923485 2.000000
9.911693 -4.456876 3.147792 0.000000
7.855797 -10.268544 13.462575 1.000000
2.672254 -10.054358 12.537970 0.000000
15.525089 15.995889 10.827722 1.000000
24.223589 10.445635 8.858461 1.000000
-19.977986 3.001003 4.829154 0.000000
22.417457 23.232263 11.203866 1.000000
0.249047 -4.657963 6.489862 0.000000
6.262235 23.038719 3.964007 1.000000
-20.637499 11.368689 2.934681 0.000000
-2.268687 -18.214904 6.182343 1.000000
-10.039465 20.651490 6.396888 0.000000
-17.768260 -9.536393 14.498990 0.000000
-14.374377 -21.494574 14.194752 1.000000
15.368718 6.101175 14.978999 0.000000
0.565395 2.944226 2.803194 0.000000
-14.880567 -16.389320 9.613547 2.000000
-17.120482 -5.210959 14.453677 0.000000
-8.331079 24.695904 14.934615 0.000000
14.726429 -18.294463 13.988566 0.000000
20.158437 8.761138 0.880922 1.000000
17.952349 -8.555219 5.195698 1.000000
-1.905406 13.342570 0.383957 1.000000
-13.929215 -14.693261 3.221837 0.000000
-20.047458 -11.870407 3.027979 0.000000
8.325847 -15.811482 0.743985 1.000000
8.363240 13.790373 7.893127 2.000000
-13.883008 5.554270 2.298540 2.000000
-17.636506 9.283603 4.334499 2.000000
20.857590 13.648660 4.727888 2.000000
13.109358 -4.706532 7.893137 1.000000
2.224464 16.545575 13.457654 2.000000
4.334770 -19.919733 4.619438 2.000000
21.790608 9.706359 5.439907 0.000000
17.185440 20.018108 10.346276 2.000000
22.299056 -2.768267 4.679324 1.000000
19.636851 19.918334 9.899830 1.000000
18.850144 -10.648821 8.056310 0.000000
4.957053 7.646369 11.140098 1.000000
14.153882 -11.771903 0.025857 1.000000
3.599300 -6.178661 4.086236 0.000000
-6.324100 19.358366 0.324305 0.000000
7.937942 -9.688907 2.355162 2.000000
10.883438 4.975026 5.938243 0.000000
19.425631 -2.112766 9.644765 1.000000
12.480310 9.167214 13.937163 1.000000
-4.423321 -9.728131 8.989064 0.000000
-14.331551 -8.266508 3.219140 2.000000
-20.928992 -16.385327 3.983326 2.000000
17.396623 -24.696616 14.306301 1.000000
-1.887521 5.732972 14.849106 1.000000
-5.677289 20.807074 0.367874 0.000000
14.898163 -8.332687 2.950385 0.000000
-13.728674 1.564180 2.143912 0.000000
-3.071816 14.642982 7.753462 1.000000
11.441420 -7.118398 7.466471 2.000000
-22.109102 21.168469 6.769217 1.000000
8.104326 18.826292 9.654010 2.000000
-9.687324 -22.869416 7.455660 1.000000
-7.309555 15.473557 3.916488 1.000000
14.882401 -10.135902 10.184762 1.000000
0.980942 0.000238 12.726589 2.000000
-6.408291 9.841777 3.265502 2.000000
-13.121066 3.136305 6.098628 0.000000
3.278585 -10.466711 7.111982 1.000000
-14.240947 3.585434 14.171066 0.000000
-0.550208 -22.895519 12.632568 1.000000
18.604376 10.468282 10.578910 0.000000
20.267791 -15.618907 10.294646 1.000000
10.646492 -6.520922 3.796348 2.000000
-23.107850 0.586318 10.039865 0.000000
-4.619515 15.537021 0.227849 0.000000
10.729026 -2.087015 1.473835 1.000000
17.656213 20.150776 12.745924 2.000000
12.179363 23.330594 5.840832 2.000000
-10.647470 11.388694 0.993004 0.000000
2.047254 -23.641866 13.365776 0.000000
-14.664083 3.182221 2.212177 1.000000
-22.019760 -4.367243 12.453942 0.000000
-21.533001 -17.439444 4.180589 0.000000
-24.282265 -21.702389 0.032540 2.000000
-23.330770 -9.196951 7.382271 0.000000
-0.628857 6.848848 9.228275 2.000000
-12.127181 22.635867 6.760379 1.000000
21.497817 20.068413 2.881826 0.000000
9.367555 12.750789 2.447428 1.000000
-5.139034 15.016809 13.902988 0.000000
16.525831 -9.238622 14.220670 0.000000
-8.469108 12.239795 8.614500 1.000000
-8.978667 -19.223027 13.465844 2.000000
23.401492 -23.267040 14.007428 0.000000
5.776822 -24.643227 5.092387 1.000000
-4.503162 -2.665402 0.431294 0.000000
-22.413686 -14.470523 1.270604 2.000000
-2.551926 24.009661 9.694290 0.000000
10.699324 17.944183 14.478759 0.000000
17.588398 -18.984872 4.153636 2.000000
0.719312 -9.294014 11.201318 1.000000
-16.984987 1.717692 12.783183 1.000000
13.311652 -9.303703 7.830092 1.000000
18.030349 -24.074477 5.601984 0.000000
-21.622286 0.268636 2.948981 0.000000
22.627324 6.148639 7.649153 1.000000
-24.871033 -9.765070 1.487113 0.000000
-12.775282 -5.346314 3.033165 0.000000
-0.213445 22.486699 8.972465 1.000000
20.336065 18.908314 4.781541 2.000000
-13.236930 -12.721477 3.730631 0.000000
17.724713 -1.314274 2.701952 0.000000
-7.680921 -9.993527 14.729595 1.000000
9.078900 -18.986847 4.040421 1.000000
-11.175896 23.374865 7.763638 2.000000
-17.052021 10.162566 0.231019 2.000000
23.617311 -20.052968 4.693087 1.000000
11.774334 -12.266320 0.020969 0.000000
-14.118222 1.653937 0.202129 1.000000
3.152815 23.433948 8.536521 0.000000
-11.355180 23.468389 1.503277 1.000000
-23.831448 6.560182 13.041030 1.000000
0.884909 17.483107 9.745313 0.000000
-23.285842 23.392134 8.432570 2.000000
-2.541184 -22.532625 5.655706 2.000000
6.681895 -14.555064 8.931207 2.000000
-0.343969 14.167428 1.965151 0.000000
-24.827996 0.038423 2.099253 0.000000
-21.028459 -0.939199 10.438197 0.000000
23.714811 -9.139301 5.812008 0.000000
-3.587338 -10.094869 3.121523 1.000000
19.437070 19.756633 8.701316 2.000000
-14.303693 -7.811563 12.018144 1.000000
7.733039 19.533972 8.760846 1.000000
4.291059 -0.706506 4.348741 0.000000
16.836721 2.727892 5.953094 2.000000
16.153082 23.790221 13.486952 0.000000
-22.500236 17.281255 13.961465 1.000000
8.310248 24.695324 1.653530 0.000000
-15.781971 -14.634928 5.899776 0.000000
-18.488616 3.824809 6.637101 1.000000
-12.286323 14.240505 6.573889 0.000000
-4.661392 -21.080912 9.683255 2.000000
8.023860 7.451161 9.460329 0.000000
-24.873145 23.589166 9.485709 0.000000
19.090306 13.777015 3.022756 1.000000
23.405626 2.254098 7.104610 0.000000
13.772534 -23.257340 4.441143 2.000000
5.180079 -3.063995 5.890150 2.000000
-9.604758 -18.228396 7.048459 0.000000
0.908884 14.762952 11.471502 0.000000
7.570106 19.584331 9.714529 0.000000
-23.293297 17.126702 9.186059 0.000000
18.155157 -20.929868 0.170398 1.000000
17.805873 3.826747 12.136540 0.000000
1.903582 -20.592444 4.490706 0.000000
-11.289866 -20.407777 4.666512 0.000000
21.321028 -12.552040 11.032135 1.000000
4.862959 -1.279128 5.482957 0.000000
-3.005652 -16.136122 9.098026 2.000000
18.737940 24.468774 7.721332 0.000000
-2.461735 0.481783 9.376142 1.000000
22.090298 -15.412979 4.598384 2.000000
6.917972 -2.029982 4.629663 0.000000
-23.032918 -17.291415 12.096166 2.000000
-1.419355 21.947216 12.094166 1.000000
-5.423365 -19.460747 2.119267 1.000000
-19.358266 17.395884 11.593539 1.000000
-2.937325 19.075979 8.659122 0.000000
-2.951907 -11.891923 10.577754 2.000000
-20.208818 0.441039 6.701695 0.000000
8.722044 11.058918 11.819482 0.000000
23.323000 0.721640 8.638048 1.000000
-16.735814 2.729376 5.413718 1.000000
-0.859724 13.664008 2.849136 2.000000
15.523059 -9.357066 11.911449 2.000000
15.187393 -13.425326 0.979562 2.000000
-24.565468 -4.016730 9.655693 0.000000
16.065199 -24.174697 3.035876 0.000000
18.237764 3.923111 7.767451 0.000000
-13.367988 13.572924 2.375407 2.000000
9.076210 1.872721 10.197608 2.000000
17.011555 7.491230 4.187121 0.000000
17.252238 19.928508 13.300459 0.000000
23.552354 21.213068 14.024276 0.000000
-20.872792 21.600528 12.336395 0.000000
17.371580 23.183691 9.125862 2.000000
8.744079 19.593151 0.888106 2.000000
-22.690253 3.292656 7.848695 0.000000
-12.486039 -22.058805 11.186161 1.000000
20.766764 14.427606 1.359075 0.000000
-9.073565 12.534190 4.946193 1.000000
10.165927 -23.361181 2.674611 0.000000
7.769130 24.430806 1.544827 0.000000
-13.789632 24.354849 12.025880 1.000000
10.299649 -17.588426 7.502147 1.000000
6.730707 16.721255 12.559165 1.000000
-11.941363 8.342095 6.008095 0.000000
-19.017397 -15.931780 1.560654 0.000000
6.592296 -20.313900 3.664421 0.000000
14.276889 8.617907 14.019376 2.000000
-7.554691 2.176230 2.473069 2.000000
12.894822 -11.984824 14.782237 1.000000
12.126410 15.465533 0.178719 2.000000
-21.797594 -19.354492 0.876687 0.000000
13.489197 -18.294238 11.245723 0.000000
24.577469 -19.818624 6.859880 1.000000
-19.672557 -0.584848 8.946779 2.000000
6.892321 20.000559 5.130166 0.000000
-17.151489 -17.053433 9.792510 1.000000
-17.054423 -6.997466 6.487885 0.000000
12.579787 -7.590161 6.734555 1.000000
17.948550 9.593210 7.366510 2.000000
24.357524 4.550776 8.224601 2.000000
12.733397 12.380983 11.486775 0.000000
-0.244885 -7.641107 3.817690 1.000000
-20.734548 22.307900 8.975006 0.000000
7.076838 11.673872 7.854691 0.000000
12.966210 8.940672 4.277992 1.000000
-15.339337 16.304044 6.607134 1.000000
-2.399024 3.512795 4.639260 0.000000
-14.831538 16.095938 4.845408 1.000000
11.763848 8.257836 6.632750 0.000000
17.143956 -17.632120 6.947510 2.000000
17.063259 -3.999340 1.195531 0.000000
7.678759 -7.714371 1.051192 2.000000
-24.985694 21.000966 14.424426 0.000000
-8.691185 -2.414442 2.363013 0.000000
-7.166373 -20.714292 6.330454 1.000000
7.377422 -4.996783 1.553047 1.000000
18.959179 24.390267 11.575281 0.000000
13.509591 8.045533 5.461789 2.000000
-20.737636 6.138638 8.807548 1.000000
-22.540985 6.986586 3.205938 0.000000
-18.612294 -21.871138 0.972215 1.000000
8.473558 21.383867 3.239615 0.000000
-4.374740 -9.269872 5.766752 0.000000
22.694862 2.349165 7.476438 0.000000
-18.561473 3.927843 13.816718 1.000000
6.431415 -15.805098 1.304680 0.000000
20.231620 10.233229 1.588097 0.000000
-4.299070 -5.391002 6.100812 2.000000
9.817818 -20.562119 9.844289 0.000000
3.461093 -6.180963 0.718311 1.000000
-2.826078 4.464458 7.155195 0.000000
-18.760518 -21.025573 6.479057 0.000000
-17.835897 10.613921 3.574586 2.000000
4.530963 -20.126422 7.158028 2.000000
-0.884802 -14.245347 3.973455 2.000000
13.135460 -12.597987 8.894223 2.000000
-21.575424 22.831672 0.554172 0.000000
-19.228698 -11.309440 7.680322 2.000000
-21.102935 21.205216 4.827622 0.000000
15.293333 23.244924 1.931717 0.000000
0.666897 -22.203042 6.836643 1.000000
-24.763754 -5.208987 1.850758 0.000000
20.543719 20.872730 2.791647 2.000000
-13.573843 17.340338 6.892336 1.000000
-21.825630 -12.861047 4.976515 2.000000
14.953128 17.258118 1.156617 2.000000
-5.959447 19.659525 6.596853 0.000000
11.227680 3.996170 9.436467 1.000000
-18.468090 -8.942103 14.849074 0.000000
6.187486 -17.444074 1.138134 1.000000
-19.417931 9.402182 1.116433 0.000000
-10.898711 12.441276 14.964395 1.000000
-15.970516 15.394893 13.626913 0.000000
2.666134 -23.495376 5.491981 1.000000
-17.263926 19.913774 14.236100 1.000000
10.248744 -23.566506 6.014144 1.000000
3.082410 9.204114 13.325147 1.000000
22.402847 2.007614 3.718337 2.000000
-14.717383 -9.661985 9.510579 0.000000
22.596846 6.625908 12.230673 0.000000
-1.730630 -0.417722 13.561775 1.000000
11.394985 -21.658517 0.019933 0.000000
3.269164 -12.816005 9.128178 0.000000
12.242640 -4.955139 5.731521 2.000000
2.928129 7.000596 7.466284 1.000000
24.385723 -0.617581 3.440049 1.000000
6.956367 -1.566002 4.952577 0.000000
-19.355334 22.288110 11.312493 0.000000
5.400348 14.883538 3.920135 1.000000
20.446900 -6.905884 12.039473 0.000000
-1.883422 -11.000102 4.177445 1.000000
-17.395086 -20.333363 9.381765 2.000000
21.113484 -19.671250 9.963622 2.000000
13.901690 21.285878 11.636813 0.000000
-24.822327 -19.006583 2.824103 1.000000
-6.887953 -4.850041 10.859287 2.000000
-20.035384 -15.769584 2.795899 2.000000
-5.533534 14.611226 9.967385 1.000000
-11.862078 -1.702017 0.268116 2.000000
-6.829357 -24.037827 10.067459 2.000000
-2.802798 -21.718730 6.413411 1.000000
21.136196 21.233511 13.421751 2.000000
6.674761 -4.777212 6.368693 0.000000
9.710640 -6.568271 7.550455 0.000000
23.230191 10.094523 9.637434 0.000000
-9.439700 -9.689871 7.038482 1.000000
-2.297822 15.526053 10.737838 2.000000
-4.092372 -21.534095 8.464938 2.000000
24.947997 -1.355723 4.879351 1.000000
7.050365 13.427598 12.717728 2.000000
19.556613 16.746438 9.421836 1.000000
-18.254769 24.478365 4.999981 1.000000
4.736119 13.978489 12.493835 0.000000
-0.733246 16.470493 9.462198 2.000000
-12.801643 -2.705093 12.201956 0.000000
2.353861 9.596547 10.604339 0.000000
7.627956 7.666942 8.028505 2.000000
-2.850614 11.107865 3.695180 1.000000
9.148317 2.046730 0.544661 0.000000
-5.488802 -16.501944 4.615327 0.000000
18.987719 -5.128447 11.687703 2.000000
-21.716544 -2.750735 10.668448 1.000000
0.798966 -12.476000 5.096481 0.000000
19.866562 1.412179 0.985061 0.000000
-0.526315 -23.207848 4.575730 1.000000
22.991094 16.284336 9.819360 1.000000
0.750156 11.629708 11.962881 2.000000
-14.772707 -22.843119 4.882692 1.000000
-17.904591 -12.169652 3.129185 0.000000
4.630674 -6.170653 11.192093 2.000000
1.441381 7.959943 3.005884 1.000000
-22.566951 14.875104 14.451015 2.000000
6.021557 18.285775 14.790210 2.000000
14.373677 -10.503771 12.886844 1.000000
8.921659 5.318739 3.652905 2.000000
-14.948472 -18.628408 14.076962 0.000000
6.939526 16.070747 7.110136 1.000000
11.298072 12.245609 3.296553 0.000000
3.233104 -18.063993 13.811347 0.000000
22.289488 22.295904 12.136937 1.000000
20.388422 -11.148809 9.798514 2.000000
6.891816 2.459596 12.127156 2.000000
-3.146520 -14.964597 10.380402 2.000000
-1.762871 -24.932403 2.739794 1.000000
-6.555481 5.790176 3.785391 2.000000
-2.433914 20.990417 13.536611 0.000000
-1.146230 -13.802224 2.758896 0.000000
17.824885 -18.898774 2.010696 2.000000
-13.791731 3.136222 11.792054 2.000000
9.175551 -23.769499 8.718223 0.000000
9.635462 -6.067877 7.822577 1.000000
-21.164669 1.801860 13.324814 0.000000
22.878762 16.272775 1.732086 1.000000
-1.714065 -9.865382 10.462821 1.000000
16.448594 -3.632316 3.312667 2.000000
-3.201039 7.932882 10.253391 1.000000
-16.774803 -22.486342 12.072373 0.000000
7.469531 -7.448238 10.939436 1.000000
-4.204254 -15.631790 9.234617 0.000000
-15.428416 4.396049 1.968548 0.000000
7.580170 13.211822 4.040702 2.000000
10.729692 -23.176841 13.073872 1.000000
5.457898 -16.728038 2.767921 0.000000
-9.505645 -24.363728 3.141586 2.000000
-7.213011 -19.531797 12.732160 1.000000
-23.215740 12.873617 5.648806 1.000000
-20.334366 -17.540028 4.154320 1.000000
-22.601780 -6.120003 11.666387 0.000000
7.882306 22.041752 14.739472 2.000000
-17.217030 -16.159086 4.543181 0.000000
-17.960644 17.293533 3.791492 1.000000
-13.469019 24.205349 14.528144 1.000000
-16.639629 -24.624519 14.440127 0.000000
-18.398127 4.251269 9.882852 1.000000
-11.847670 -24.811469 9.971483 2.000000
0.550580 -0.028185 10.108534 0.000000
-1.253365 7.548936 4.492866 0.000000
-19.228503 -17.740352 4.460876 0.000000
-20.524770 6.191774 5.210834 0.000000
-20.808258 10.335922 2.129233 1.000000
19.357131 4.955720 9.180891 2.000000
-18.420311 -5.741431 1.417074 2.000000
22.675780 -10.191707 11.334678 2.000000
16.862842 -4.377659 10.850363 2.000000
-24.660364 18.998710 7.912183 2.000000
22.242191 11.941059 9.292072 0.000000
-12.520822 15.065626 6.011148 1.000000
-15.573181 -5.583572 2.648646 0.000000
4.675662 -5.953649 4.860632 2.000000
-19.160201 18.392335 7.339393 1.000000
18.148026 2.513327 8.001450 0.000000
20.405323 -12.661675 11.691220 0.000000
17.532173 -17.251356 4.865114 1.000000
-10.465994 -14.674605 4.737585 2.000000
7.822192 14.300768 0.891539 1.000000
23.018444 9.103476 9.673541 1.000000
2.044492 -0.060466 9.500664 1.000000
20.011220 -7.210805 0.567258 1.000000
6.086275 9.104005 3.958198 0.000000
15.483534 4.186167 6.184966 0.000000
-20.288330 -2.235033 8.095710 2.000000
23.867449 20.191838 1.837701 1.000000
-16.571358 -5.717727 11.581693 1.000000
16.173020 -7.568638 14.072959 1.000000
-6.064108 21.999556 0.274644 0.000000
-11.661121 -1.909300 9.453630 1.000000
11.292262 4.916080 7.199225 0.000000
15.185156 20.053559 11.928687 1.000000
-6.047131 -21.866850 5.175663 2.000000
3.909606 -7.505103 14.398633 2.000000
9.434007 19.168189 10.695793 1.000000
20.624731 -16.484451 0.000046 2.000000
-22.751606 18.467585 7.017326 0.000000
21.127579 -21.214609 14.832636 0.000000
-8.048265 -8.863490 14.827733 0.000000
1.806809 -9.461280 12.990619 2.000000
-3.939793 9.840070 2.254538 1.000000
-3.356913 -6.096696 11.476845 1.000000
-16.739328 15.666377 7.358288 1.000000
-19.956158 8.279120 1.348014 1.000000
8.170246 -16.499364 6.564380 0.000000
7.744119 19.610236 14.056250 0.000000
2.388927 2.427673 13.991887 2.000000
8.887169 19.954566 9.618596 0.000000
-7.546170 15.274785 14.078227 0.000000
9.159090 -21.575150 8.682228 2.000000
-3.947322 11.458413 3.487623 2.000000
-7.309241 23.103577 2.391326 1.000000
11.341860 13.457908 0.057185 0.000000
-20.386302 24.585701 5.174940 2.000000
-16.968725 20.185560 4.039245 2.000000
-1.577361 11.951493 10.704087 1.000000
4.323634 24.454347 12.345347 1.000000
-22.636387 13.295196 7.078469 2.000000
11.680190 -21.663923 5.709204 0.000000
11.601080 13.663041 8.826079 0.000000
6.102072 23.103036 7.402704 0.000000
-12.770544 22.372688 13.531724 1.000000
10.137932 -6.339979 1.589890 2.000000
-2.656795 1.745291 11.330416 0.000000
4.735927 -22.129928 3.086678 0.000000
-3.440050 -4.292554 8.484660 0.000000
-3.659705 -0.230715 3.153430 2.000000
-10.608415 -16.267454 1.508812 0.000000
-9.946194 1.631771 14.481620 2.000000
13.293502 -6.242321 0.210588 2.000000
20.113958 -23.833446 2.108198 0.000000
7.814112 8.023342 10.816941 0.000000
4.640786 15.134018 13.584901 2.000000
-21.922023 -7.465930 5.539192 1.000000
4.490733 -6.088561 2.434993 2.000000
13.342426 -9.137615 9.433184 2.000000
2.421362 -13.773448 6.235545 1.000000
-17.176017 7.643970 3.572983 1.000000
-19.345760 -4.806117 4.685180 0.000000
10.688006 -13.199027 5.827359 0.000000
12.582237 -18.286496 6.528792 2.000000
-21.362977 20.846077 14.171729 2.000000
-22.073553 8.148940 8.949532 1.000000
7.465765 -3.080673 13.361530 0.000000
23.062223 -13.810059 13.768832 2.000000
10.501317 2.072307 12.667895 2.000000
-9.108617 16.158553 12.536422 1.000000
-0.462436 11.348242 11.318445 2.000000
-22.836376 -2.472248 12.661337 0.000000
-8.639392 15.953587 12.004589 2.000000
3.726886 -10.609410 14.062142 0.000000
-15.040252 12.763486 2.672103 2.000000
20.847562 -19.491066 9.037771 1.000000
5.814839 -1.046857 2.389299 1.000000
-14.161524 -21.794085 7.416975 1.000000
1.214819 -12.590045 14.267619 0.000000
-1.552159 -12.704319 6.427042 1.000000
-21.503542 11.178620 2.227515 1.000000
-5.617976 -12.814318 9.466212 0.000000
13.267529 -21.373338 3.982290 2.000000
15.433137 8.587610 3.676958 1.000000
16.657564 2.789417 13.390531 1.000000
24.312765 -18.493236 7.814064 1.000000
-20.999128 0.445663 14.871679 2.000000
19.413003 18.761787 7.820447 2.000000
-20.127423 -15.398585 7.961447 2.000000
16.135153 5.977688 9.942186 1.000000
-20.191165 0.023850 1.337847 2.000000
24.169771 13.207207 1.870560 0.000000
8.634862 -18.571511 5.397143 0.000000
10.409210 -16.884866 0.856780 1.000000
-13.116750 2.708589 2.402705 2.000000
-21.003053 -5.049019 7.311162 1.000000
10.035190 23.641930 2.620051 1.000000
19.699631 -20.729988 13.475810 1.000000
8.668468 7.264086 4.871473 0.000000
-17.979309 -17.388581 0.379071 0.000000
-12.546902 5.024986 8.260832 2.000000
-2.156114 3.403436 6.703324 2.000000
-13.692974 1.807861 9.503924 0.000000
21.987155 -0.082074 0.687447 2.000000
19.180777 -19.206315 9.370698 0.000000
10.367301 -1.960509 7.820175 0.000000
-13.232042 21.420784 2.482329 0.000000
-17.107188 18.884244 1.502272 0.000000
20.246613 17.387895 11.045009 0.000000
-18.728919 13.642319 12.604953 2.000000
6.404905 -14.021414 2.560379 1.000000
14.018249 -5.019882 8.671753 0.000000
17.702197 -6.018666 6.886169 2.000000
-22.085454 18.202603 10.317336 0.000000
-10.307887 -5.458048 8.887034 1.000000
23.936222 3.781136 6.072034 0.000000
12.106927 -21.111190 12.332234 2.000000
-4.609275 1.870255 0.332258 2.000000
10.494078 -6.589076 7.591179 0.000000
20.519031 -18.166554 4.346184 2.000000
1.182735 22.284662 5.908126 2.000000
-9.000613 12.124193 2.484116 1.000000
-12.038760 -13.928635 11.114830 2.000000
23.649580 -17.026400 6.792348 1.000000
19.093949 2.439865 10.308136 1.000000
-2.073144 18.371215 0.828851 0.000000
-2.735590 23.848640 8.484291 0.000000
2.131781 -12.064403 10.077767 1.000000
12.959861 -22.558518 9.074074 0.000000
-9.378681 15.174471 8.882705 1.000000
-0.223659 3.452559 10.616316 0.000000
-0.037543 -22.290728 9.135638 2.000000
16.792221 10.927194 5.069382 0.000000
-1.144186 10.316734 10.245211 0.000000
-0.487410 2.131473 13.827198 0.000000
23.724237 13.279921 14.455853 0.000000
-19.740960 23.385756 0.155329 2.000000
9.318026 -20.663517 0.049337 1.000000
-6.824316 -21.369373 11.793213 2.000000
9.067571 7.079588 9.301839 1.000000
-8.699331 -14.245987 10.852713 0.000000
2.768656 20.851346 11.764641 0.000000
-15.007144 -15.779896 0.558853 2.000000
-0.633747 -18.885570 9.703269 1.000000
17.763237 -9.225792 2.959783 0.000000
8.969156 -15.111565 12.884068 0.000000
-9.249466 6.989318 0.086415 2.000000
14.881668 -5.039116 9.925935 2.000000
15.942783 21.909534 5.473946 0.000000
-12.894757 -11.786913 8.320571 1.000000
23.756359 14.183812 8.878309 1.000000
17.396696 5.141924 9.937183 0.000000
17.938577 22.734778 12.788058 0.000000
-15.401665 16.313186 13.896859 2.000000
-18.213280 3.039252 5.481503 0.000000
-15.550016 4.747219 8.300469 2.000000
13.197403 -12.492625 4.144283 2.000000
22.318902 -19.040094 11.247967 0.000000
17.886183 18.091250 12.294565 1.000000
24.510812 -2.868303 7.084389 1.000000
-14.567341 18.647013 7.424092 2.000000
-7.332468 -4.575054 8.326450 2.000000
-1.131113 4.729812 7.365632 0.000000
-15.644363 1.513049 7.919654 2.000000
-18.202129 19.679555 2.668819 1.000000
15.085278 22.150718 2.154976 2.000000
21.658112 -5.192572 0.073739 0.000000
-17.218245 13.298502 0.676987 0.000000
8.499327 18.860891 2.734366 1.000000
16.187708 -12.537290 1.455611 1.000000
-10.773260 8.902792 13.951434 0.000000
7.840576 24.245838 12.787034 0.000000
13.304285 -4.876429 4.337437 1.000000
9.376271 -14.912332 0.091808 2.000000
-23.929008 16.317013 4.573146 1.000000
1.082079 -18.152656 11.130309 0.000000
-16.714937 18.312483 6.727706 0.000000
-17.908989 20.405503 4.044833 0.000000
-4.866530 -21.562108 1.690619 1.000000
-11.723204 7.302095 8.974577 0.000000
12.624033 -19.433349 9.027944 1.000000
10.709956 -9.885833 10.664746 2.000000
-17.362563 -15.086401 14.371818 2.000000
-16.842305 9.665439 5.002369 0.000000
-12.881491 9.303518 7.555013 0.000000
5.452579 7.406090 12.223720 0.000000
21.726099 -1.693263 1.431467 2.000000
1.327692 1.349150 1.986942 0.000000
24.691836 16.961570 8.477439 1.000000
-16.720758 -0.190026 6.124920 1.000000
-22.237461 22.356552 8.525348 0.000000
-18.043260 -19.341895 10.005293 2.000000
-6.985544 7.590476 7.028974 1.000000
18.267695 -23.120817 3.874352 2.000000
0.821279 12.831170 13.970713 2.000000
-5.544187 23.353189 10.115196 0.000000
-7.016943 -7.986225 10.191600 1.000000
1.550700 5.687775 14.156067 0.000000
-12.588934 -1.543256 5.062262 2.000000
-13.276228 -9.927638 6.820447 2.000000
15.224327 -4.644582 3.090220 2.000000
7.795582 13.174158 11.354893 0.000000
-24.507071 18.512263 10.431790 2.000000
-5.317765 -6.284673 8.925100 2.000000
-5.856500 -23.515306 12.972633 1.000000
-4.381628 -4.953447 3.158227 2.000000
15.974729 5.776210 6.908546 0.000000
3.692816 15.712432 1.812734 1.000000
-1.248182 -21.790877 1.177062 0.000000
12.193603 0.657615 0.771088 2.000000
-12.253948 -19.826887 11.110485 0.000000
21.698077 -4.332799 3.532154 0.000000
-16.482944 -11.041900 7.801315 0.000000
-6.740629 -17.486431 10.562337 1.000000
23.332724 13.245663 0.403744 0.000000
11.044230 -13.460495 14.011232 2.000000
-15.775026 3.345649 9.444157 1.000000
-24.948919 -9.192469 4.518065 2.000000
-10.307810 -22.340253 9.000560 1.000000
3.071253 13.409211 7.721217 1.000000
19.085577 -5.434770 6.906191 1.000000
19.502485 -23.794853 1.241433 2.000000
-3.595557 -7.146476 2.774289 2.000000
20.931422 -4.229377 12.967339 1.000000
-24.129865 23.639592 7.638378 2.000000
8.202029 -3.114109 1.601399 2.000000
9.170251 -22.963865 2.175982 0.000000
12.718537 -16.050795 1.642877 0.000000
-21.481344 2.928272 8.872408 0.000000
-8.479016 22.512424 7.940598 0.000000
17.366528 14.244542 13.231812 0.000000
-1.032500 -13.939173 11.994874 1.000000
-10.456923 -12.755452 5.282980 1.000000
-24.984978 -2.336223 0.325029 0.000000
3.489609 -4.842961 2.057635 2.000000
21.753115 14.487753 1.043655 1.000000
11.000492 9.939291 2.867793 2.000000
9.457324 23.315542 12.979195 0.000000
8.629418 24.762487 6.553863 0.000000
-1.739261 -5.321330 14.808756 0.000000
-0.895522 -18.839781 0.986602 0.000000
6.740412 21.952417 14.373590 0.000000
-10.237179 18.403309 6.641239 2.000000
18.048387 -4.514952 0.092974 0.000000
-13.651359 -11.199556 0.390001 0.000000
0.265249 5.062961 8.693700 0.000000
18.042502 -12.584657 14.970968 2.000000
15.033805 -15.309260 14.539089 1.000000
17.096587 -23.652080 3.758365 1.000000
-5.123692 -0.741639 10.668729 0.000000
3.638240 18.733239 0.252212 2.000000
10.734449 -6.600959 10.415168 2.000000
-9.669324 24.224913 7.479899 0.000000
10.952689 -8.237069 3.080750 1.000000
14.863139 -10.760942 7.841060 2.000000
10.449133 -14.453967 12.189671 0.000000
23.956899 -13.627102 10.836393 2.000000
18.639206 20.904421 2.012544 0.000000
16.976901 -14.184876 0.500196 1.000000
13.777822 4.392416 7.262058 2.000000
-22.166774 -19.555075 6.932602 2.000000
-10.296188 -0.148468 3.907631 0.000000
17.628777 7.468843 3.203679 2.000000
-21.987718 5.054402 5.782740 0.000000
12.913217 -3.046134 5.993525 1.000000
-20.311960 -16.123855 10.940835 2.000000
3.466304 -6.715620 11.428915 0.000000
9.312242 24.409109 9.156080 2.000000
15.829962 -23.667120 8.695062 0.000000
-7.467444 -0.784045 14.380247 1.000000
17.028344 17.145117 13.648586 1.000000
-7.350106 23.922282 14.950721 0.000000
-20.810849 -7.764565 4.980090 0.000000
16.237134 6.789092 10.774244 2.000000
16.404934 7.176247 8.840572 0.000000
-9.677860 -12.299169 3.250495 1.000000
-3.784384 2.220518 10.693029 1.000000
-16.885110 -6.065388 7.634716 2.000000
-20.569087 16.605387 12.306191 0.000000
-17.456936 7.249886 0.741762 2.000000
-2.107209 -15.370889 13.800160 0.000000
12.950009 7.210096 7.976267 0.000000
-20.339246 -2.486274 11.449910 2.000000
11.660623 -21.747977 11.876628 0.000000
-23.399031 -6.103361 6.303167 2.000000
2.433524 -10.048533 1.918693 2.000000
-9.995982 -12.915443 13.199568 1.000000
-14.577954 6.017178 2.937874 1.000000
-14.151817 15.500727 11.889490 2.000000
-10.956611 18.534037 13.986241 1.000000
-1.169001 23.484925 11.379171 2.000000
0.460212 -17.795395 14.617242 1.000000
2.687713 16.388111 5.973147 0.000000
1.633962 15.268403 8.614975 1.000000
-3.645157 -24.445080 7.880080 0.000000
7.229639 -23.310563 4.854379 0.000000
20.702157 -0.716972 5.127256 1.000000
0.064653 2.538814 10.638852 1.000000
-19.367409 -8.453954 5.332001 0.000000
9.168400 -4.976365 3.594150 1.000000
3.193706 -9.093625 10.321189 2.000000
-15.560716 3.129514 12.464673 0.000000
14.927032 -0.422629 3.917880 0.000000
-16.886640 8.721114 2.163734 2.000000
15.875685 -22.906786 4.423909 0.000000
-22.784006 13.416755 5.759571 1.000000
-14.215079 -8.066720 4.208514 2.000000
17.007496 -3.780860 9.477176 0.000000
9.423943 -15.669642 0.200726 1.000000
-16.363559 7.022051 0.939129 2.000000
-23.482350 9.145167 12.243927 0.000000
-4.235933 0.855716 13.767313 0.000000
20.920557 -19.850522 10.537227 0.000000
-17.568102 0.770072 2.517951 1.000000
4.926198 10.809871 7.630878 2.000000
15.306201 -14.133026 6.764567 2.000000
-16.825471 -22.540513 13.900583 1.000000
-24.453719 7.231266 14.041393 0.000000
12.423004 8.641631 7.770060 1.000000
-0.977771 -14.736770 12.669075 1.000000
23.970413 -9.387433 4.441097 2.000000
8.746430 -4.815006 14.760365 0.000000
-7.533932 13.103320 11.899148 0.000000
-6.706930 19.663164 8.286986 0.000000
-9.823213 20.910077 11.202591 0.000000
-8.104873 19.747785 7.069769 1.000000
-22.507973 -12.952732 3.919974 0.000000
-12.767561 -22.427545 0.575151 1.000000
-23.805252 -23.947561 10.073179 2.000000
-8.396407 -23.658590 0.111115 0.000000
19.527207 -24.682154 8.470303 1.000000
3.397234 5.139241 3.502890 1.000000
-13.401657 2.001139 6.147575 1.000000
8.690707 4.878063 8.183190 0.000000
11.389784 4.706614 10.433193 0.000000
-1.770208 13.468873 1.330176 2.000000
7.519103 19.154598 9.108214 0.000000
2.842920 -5.871725 14.483353 2.000000
13.794725 -16.092971 2.826826 0.000000
14.975878 20.202286 1.579676 2.000000
-3.334306 6.248733 11.087413 0.000000
-17.882190 -23.555125 12.495844 2.000000
10.461737 -4.536963 1.420341 0.000000
-22.842427 7.512142 0.781437 0.000000
3.989555 -10.102495 4.160483 1.000000
23.218456 -7.064137 8.179247 2.000000
0.231707 -2.529712 14.473719 0.000000
-23.195571 -2.605749 13.500840 1.000000
0.131095 14.764593 2.495436 1.000000
5.387361 17.802570 10.503048 1.000000
-8.877273 0.458628 14.785135 1.000000
24.441867 6.286934 0.911721 0.000000
-21.566957 -14.312421 14.220860 1.000000
-18.129340 -9.940258 4.532928 1.000000
-15.926995 -2.202345 13.148344 0.000000
-8.016539 -20.448018 4.290723 2.000000
-18.054371 5.862728 1.497340 2.000000
9.317233 19.496328 2.125057 0.000000
-10.290614 -13.651945 10.112867 0.000000
-19.935273 -24.257855 10.513587 0.000000
-15.372813 -10.274967 0.106874 2.000000
1.368180 9.874229 5.541576 2.000000
20.470901 -21.689336 3.246660 2.000000
16.720015 20.808394 9.172255 1.000000
-7.158455 4.734030 14.387327 2.000000
2.804009 24.959153 14.270617 0.000000
5.359118 -14.380500 6.028959 1.000000
17.251411 -5.964426 5.752863 1.000000
13.896018 -16.787382 0.343125 2.000000
2.183392 23.519646 10.028897 0.000000
7.866212 -22.811009 13.151451 1.000000
21.975074 -13.428334 10.152534 2.000000
-16.910744 17.175331 2.961430 0.000000
-20.076527 0.521801 5.860501 1.000000
3.732274 -18.011046 3.844052 0.000000
-15.479714 3.978643 1.101470 0.000000
-20.656867 -9.626087 3.831626 2.000000
15.721473 -11.029646 6.506518 2.000000
-4.121744 11.443298 4.570631 2.000000
17.753391 14.997063 1.903074 1.000000
10.330229 16.956494 14.490882 2.000000
15.448775 8.847602 8.725796 0.000000
1.284407 -17.777100 7.745167 2.000000
-21.393002 -13.188981 6.292039 2.000000
-13.069710 -4.903051 9.039071 2.000000
13.827073 8.827969 3.345791 2.000000
4.256857 -8.259229 8.184504 1.000000
-19.109091 -13.367595 6.934041 2.000000
-2.137600 22.860977 6.021157 1.000000
-17.937527 -12.179001 7.854080 2.000000
21.558035 -19.451016 7.796573 1.000000
-16.998981 -3.914440 9.785060 2.000000
7.251797 -19.458106 1.485251 2.000000
-15.027291 3.484499 4.056973 0.000000
-8.009841 -16.829128 4.179097 0.000000
14.125736 -23.003597 10.455640 1.000000
-14.100491 -22.467301 14.873488 0.000000
-12.037577 -10.917923 8.093622 2.000000
-2.479832 12.900890 1.883385 2.000000
1.443950 17.035990 7.253555 0.000000
-14.930464 0.363363 8.502291 1.000000
11.494534 -1.937461 14.860859 0.000000
5.620021 -23.325208 9.432474 2.000000
15.220200 -22.547427 7.863700 1.000000
-6.801497 18.564211 7.018122 0.000000
14.349436 -12.085083 3.879115 0.000000
-20.203002 -5.092247 3.180240 0.000000
-2.914850 14.548636 3.439482 2.000000
-15.635651 -18.262793 14.691798 1.000000
7.629332 24.022936 0.449051 0.000000
-4.405251 12.766854 7.896261 1.000000
-13.368828 -20.997220 5.518652 0.000000
-4.736962 -14.609004 12.515604 2.000000
-20.167684 -17.371318 14.645012 2.000000
5.071073 19.149956 2.054900 0.000000
-11.949065 -7.485069 11.979518 1.000000
0.348013 20.395514 8.166395 1.000000
18.471340 5.088116 9.690686 0.000000
0.235701 -10.374391 7.506334 2.000000
-22.103467 -14.695606 6.833931 1.000000
-5.465852 13.051904 14.204939 2.000000
14.649269 5.487340 0.275547 2.000000
19.595470 -11.831460 11.344808 2.000000
-7.420484 1.247562 4.331529 1.000000
6.392136 23.106353 9.410136 2.000000
-10.642898 20.399140 12.565532 0.000000
-4.826545 19.015481 6.893529 2.000000
-19.005424 10.631833 5.147151 2.000000
-11.646247 -3.588838 8.189787 1.000000
-14.334410 13.746294 0.975687 1.000000
17.561283 -2.637622 1.792565 0.000000
3.359074 -5.852279 4.970682 0.000000
-20.933582 -5.435286 8.121198 2.000000
-22.981952 -6.040301 1.736086 0.000000
19.026454 0.759077 12.616065 1.000000
-15.021039 1.879033 4.642578 0.000000
0.873137 15.230821 9.321095 2.000000
16.145365 2.437920 2.891875 0.000000
-0.712501 8.755339 6.267310 2.000000
24.807006 -18.896473 9.093484 1.000000
11.586774 -1.312200 14.481493 2.000000
-5.520467 10.579712 4.681924 2.000000
1.672693 9.455664 9.434935 2.000000
8.704790 -10.321413 5.817739 0.000000
-20.539981 0.412759 0.569728 1.000000
14.628892 10.934200 3.663121 1.000000
1.142931 -17.553291 0.742245 2.000000
10.102228 -11.636868 1.579548 0.000000
2.570710 -19.250647 3.634314 1.000000
-3.757035 -21.496180 12.247490 1.000000
-11.401439 5.501598 10.338224 2.000000
-4.186596 19.154799 5.153747 1.000000
-3.817174 8.111343 7.825629 1.000000
-14.852593 1.110618 13.280552 0.000000
-21.031500 -13.050596 6.928115 1.000000
-8.307711 17.172392 10.552652 2.000000
-3.568747 -14.348911 12.002128 0.000000
7.033507 -13.025688 14.554830 2.000000
11.307353 7.770081 14.937356 0.000000
0.003400 -9.330267 6.767629 0.000000
-12.142819 -23.473374 4.961251 0.000000
0.197060 7.461280 2.544781 2.000000
5.062350 5.730039 11.253999 0.000000
15.828345 15.961755 14.588226 0.000000
21.116067 -23.344766 5.657122 1.000000
-24.306787 -6.225089 14.079710 2.000000
0.342683 23.311215 3.645008 0.000000
15.075390 -18.646990 1.684622 2.000000
5.657146 -4.353710 11.057519 1.000000
-17.988248 22.380858 8.177611 2.000000
-15.422770 -15.713150 9.503958 1.000000
15.835794 -20.607335 5.698215 0.000000
9.095230 -0.772994 1.865992 1.000000
13.951577 -5.801307 8.155907 0.000000
-2.795219 1.588727 0.590716 1.000000
-24.080593 -20.316801 4.342196 0.000000
4.385049 0.362011 8.990428 0.000000
20.180445 -8.169898 2.188246 0.000000
-22.957812 23.679142 1.200530 0.000000
-8.614277 -5.410651 10.161572 2.000000
13.695189 24.839269 2.406952 1.000000
-17.674351 15.022880 9.183604 2.000000
-24.728489 -3.452490 13.054074 0.000000
13.880109 -5.781293 2.507843 0.000000
19.583538 -3.090362 13.611157 2.000000
-24.143313 -20.721531 9.933192 0.000000
14.404086 -8.221687 7.300338 2.000000
-7.119816 9.903627 7.040370 2.000000
-14.624073 -5.941206 2.446503 1.000000
16.989075 -2.582896 0.276134 0.000000
12.791784 -9.496865 14.967473 1.000000
-18.679387 -22.940816 2.915348 0.000000
12.942936 10.991115 12.632462 0.000000
-12.605340 -2.217724 10.855060 0.000000
-22.996151 -10.033555 9.874528 2.000000
8.850834 14.975741 10.128480 0.000000
-16.505684 -13.350022 6.017224 0.000000
21.249181 11.006993 11.945053 2.000000
-13.715624 -24.163603 13.123710 2.000000
-7.585828 10.715362 13.503368 1.000000
-14.910820 -14.190085 9.278074 0.000000
-20.107219 -5.709285 10.021252 2.000000
-11.504323 23.649607 3.098911 1.000000
-0.665392 17.789222 5.990482 0.000000
-1.324879 4.036918 11.178881 1.000000
6.952915 -5.999105 1.590193 0.000000
22.872325 -10.892522 5.845192 2.000000
-23.852439 11.194576 6.149380 2.000000
-13.229880 2.625674 2.766639 1.000000
24.817730 -14.628737 8.362673 0.000000
24.569319 -20.068051 1.923497 0.000000
-0.535913 -15.276071 4.872532 0.000000
-24.113506 5.509867 6.053868 0.000000
-12.816264 -17.561053 5.872739 1.000000
14.868667 2.161003 14.908006 0.000000
19.813481 -2.198718 4.783567 2.000000
-9.518739 3.346920 0.251521 0.000000
20.227845 5.742024 13.131757 2.000000
-5.669384 -10.107620 0.678596 1.000000
21.500866 19.977331 4.535185 2.000000
12.953696 -23.659083 14.269126 0.000000
-10.052656 20.956859 4.973801 0.000000
-10.691401 -9.983150 5.954806 0.000000
-22.759586 12.362380 1.927381 2.000000
-19.449637 -0.808723 8.569599 1.000000
23.003331 -18.423636 5.173794 1.000000
22.592842 1.044668 7.819690 1.000000
-17.073460 15.536811 8.816460 2.000000
4.443105 17.902098 1.330674 0.000000
24.170333 14.882425 6.377842 2.000000
-2.943202 8.433781 2.697955 1.000000
12.858351 8.530198 14.596370 0.000000
19.064162 -22.466538 13.194937 2.000000
-5.847808 -13.180195 3.043846 0.000000
11.448292 -18.278828 4.836534 1.000000
-3.130457 19.674494 3.865894 2.000000
-2.061543 10.789232 10.146259 2.000000
-8.942456 -12.524512 9.403482 0.000000
-20.218035 4.682930 6.023459 0.000000
15.237555 -24.505835 6.707745 0.000000
-20.949838 -6.469465 0.741841 0.000000
3.557817 15.101416 13.103836 2.000000
13.681415 1.519969 7.998481 2.000000
-8.112780 -1.395506 3.968371 2.000000
-18.360965 24.685255 14.050565 0.000000
-6.072513 14.184599 6.821091 0.000000
-12.542206 -13.635673 10.148412 0.000000
-14.286510 -21.434304 10.506029 2.000000
-16.853487 18.533853 6.367509 0.000000
-1.196301 0.295376 14.108408 0.000000
12.963939 21.153591 12.703685 1.000000
22.684376 -8.754314 14.117967 1.000000
-15.207415 0.926993 3.156336 0.000000
-23.459846 11.533397 6.909550 0.000000
-11.861583 1.959537 7.561405 1.000000
13.019500 10.523700 12.076240 1.000000
-1.966539 18.354427 5.461367 1.000000
3.915556 0.253636 12.349139 1.000000
-11.258019 10.142892 5.774509 1.000000
24.174023 13.494457 6.368991 0.000000
-21.114777 16.300644 5.883454 1.000000
-7.303472 -2.726555 10.560511 2.000000
-7.926380 1.337125 11.747670 1.000000
21.608166 -2.957814 8.106820 0.000000
-2.927508 24.631834 14.439708 0.000000
-22.425269 9.470352 2.947378 0.000000
24.828405 21.621946 13.706347 1.000000
-10.262801 -0.675924 6.453931 1.000000
-4.695464 2.149182 2.942649 0.000000
21.359410 21.571752 4.297029 0.000000
-0.401824 6.038675 5.866225 1.000000
23.959143 -9.853716 11.588803 2.000000
1.787420 0.530970 13.211598 0.000000
-14.873274 9.529725 5.296508 1.000000
23.645452 0.693242 10.628401 2.000000
-14.266186 10.879362 2.340232 0.000000
16.038294 -6.400401 3.893803 2.000000
4.108825 -8.893815 14.413495 2.000000
-5.413830 0.795759 3.786059 0.000000
9.848438 15.610428 14.034336 0.000000
-17.700334 -4.988724 6.533189 1.000000
-0.441015 24.560762 14.804291 0.000000
11.859910 -22.152896 13.965543 2.000000
21.712451 23.634703 14.395571 2.000000
7.546770 20.911369 10.618262 2.000000
23.452810 4.841816 5.153015 1.000000
-16.877086 23.800193 7.626710 1.000000
2.936677 4.770752 12.401245 0.000000
-6.444177 -17.458356 9.993982 1.000000
17.306432 14.012947 8.277976 2.000000
-16.338411 -16.598904 0.886931 1.000000
8.039366 8.857425 12.621010 0.000000
13.921297 10.410231 12.287133 2.000000
-11.097657 -7.341155 0.610379 0.000000
17.962643 14.709077 6.494529 0.000000
22.854777 -12.982669 13.538197 1.000000
11.628020 -4.273636 12.304122 0.000000
1.258251 5.230353 0.137144 0.000000
19.726284 12.787613 13.109090 0.000000
10.621100 9.292323 3.739579 1.000000
20.586827 12.923434 6.702400 1.000000
-2.798326 -10.965848 11.617763 1.000000
7.382400 -19.066150 12.633411 0.000000
-1.705203 17.123693 11.658931 0.000000
-0.965858 11.812293 2.148613 1.000000
9.784381 9.256710 8.324654 1.000000
-22.519436 4.083703 2.439562 2.000000
-2.848552 -16.149662 10.259581 2.000000
-13.290562 -11.091264 4.574061 0.000000
-7.871976 11.221510 13.497118 0.000000
-24.916477 13.019707 7.726086 0.000000
4.606357 18.415050 6.453201 0.000000
23.306662 -23.007472 5.934291 0.000000
-11.637506 -9.898253 5.947767 2.000000
-5.915441 -9.248377 6.627019 2.000000
18.046644 15.914735 14.087246 2.000000
3.974514 20.075196 8.670051 2.000000
7.619084 14.588141 12.484236 2.000000
2.382593 -21.460445 4.387755 0.000000
20.329475 21.578126 5.281489 0.000000
-8.957806 24.417074 1.206797 1.000000
7.899858 20.417795 12.050411 1.000000
-6.749971 18.540783 13.851984 2.000000
-9.717964 17.556305 14.017803 2.000000
-17.722705 -4.468999 10.784860 1.000000
-9.740255 -0.827934 8.226952 1.000000
-2.283979 19.443938 0.695592 0.000000
-2.595061 -13.835696 10.125635 2.000000
1.925278 -4.567356 3.163622 1.000000
-7.964119 -10.107765 0.761056 1.000000
19.793950 -22.342008 3.813656 1.000000
-23.005240 11.250341 14.460554 0.000000
8.816258 13.601377 7.449369 2.000000
2.493474 -11.396786 9.453310 1.000000
-9.522786 17.727024 10.260154 2.000000
6.774589 -16.603658 11.748696 1.000000
-4.795888 5.877461 14.928693 1.000000
-2.093965 -19.924279 11.407072 2.000000
8.245625 -3.700897 12.966182 0.000000
-23.066569 14.820464 4.836512 0.000000
-12.208475 -6.232594 4.366452 0.000000
-12.519154 -7.758416 12.479726 0.000000
24.853897 11.725353 13.261899 0.000000
-17.704961 -4.836061 7.652483 0.000000
-12.156080 14.531709 1.450477 0.000000
-20.983227 -15.606528 12.897960 0.000000
3.951446 -3.197970 2.536752 0.000000
22.674503 -21.131749 4.385486 1.000000
-11.097048 20.407365 13.664971 0.000000
3.408001 19.693073 1.360050 1.000000
7.773487 12.455208 0.315569 2.000000
-21.746140 -1.614011 13.599640 1.000000
21.738528 13.414565 6.938855 0.000000
-3.260054 0.904084 4.344531 2.000000
-0.936939 13.488181 0.311191 2.000000
