-20.485418 22.317411 6.177855 0.000000
-3.759693 3.021369 1.849967 0.000000
-4.462546 -1.361678 12.069778 1.000000
-20.816253 -18.145541 4.280928 0.000000
8.735030 6.227797 6.542464 1.000000
-24.884611 -17.378267 12.615405 2.000000
-6.430532 13.813101 0.441819 0.000000
-18.595294 10.093430 12.223793 1.000000
-9.070422 -14.364125 7.691940 0.000000
24.713481 20.830169 14.469612 1.000000
-12.416711 -20.868934 11.406625 2.000000
-20.048670 -22.380310 10.620931 0.000000
-2.344017 -18.442478 13.975407 2.000000
10.471053 23.109803 12.028510 1.000000
9.292032 9.280308 6.424587 2.000000
-11.669964 3.798100 9.356488 0.000000
11.353437 -18.457856 10.645122 2.000000
-13.762071 9.008282 11.612077 1.000000
22.886746 14.131481 0.660192 0.000000
-17.640786 12.424053 4.623630 0.000000
11.623400 -21.581578 9.238696 2.000000
-20.545583 -24.307771 11.267609 0.000000
5.702337 4.661892 12.419238 2.000000
10.499814 16.300081 7.399659 2.000000
-16.546805 16.345787 6.911726 2.000000
13.202741 23.199453 4.507707 2.000000
10.363839 -1.788092 3.272746 2.000000
12.729622 -3.780848 0.284639 0.000000
4.269896 -20.287500 4.308031 0.000000
-5.084649 11.246311 6.890099 1.000000
9.581570 -0.173617 13.050051 1.000000
-12.669143 10.783990 10.538876 2.000000
-13.387026 2.107849 3.687623 1.000000
8.502915 14.479617 13.762167 2.000000
-20.716477 16.873475 2.439981 1.000000
20.163525 -0.450859 12.839491 2.000000
0.168577 -18.632009 3.180376 2.000000
7.527382 -14.434876 12.499089 0.000000
-1.802886 -9.046240 7.754220 1.000000
19.628049 -8.816092 8.203964 0.000000
-7.744513 10.318641 10.140550 2.000000
-16.255811 1.350838 12.545503 1.000000
24.979520 -5.344752 8.527059 0.000000
-0.458308 2.628488 1.760921 0.000000
15.316283 17.130215 14.805343 0.000000
0.162198 -13.822074 5.848098 1.000000
-6.539797 -14.304191 2.361950 2.000000
22.324651 19.113657 1.332601 2.000000
-9.564498 -13.893459 13.986063 0.000000
15.233329 18.338817 3.134986 0.000000
-18.341527 11.604938 4.992639 0.000000
-16.084385 16.579525 9.565745 0.000000
1.954231 9.539186 5.097466 1.000000
-18.192109 -3.119237 13.061884 1.000000
16.915690 3.777461 3.995734 0.000000
-10.523411 -8.816131 10.498421 0.000000
0.065656 13.133261 4.667189 1.000000
-22.667354 17.104035 2.317275 1.000000
-22.142360 18.465903 4.224426 2.000000
-10.759044 -17.020199 6.501472 1.000000
5.057406 11.765591 6.750942 0.000000
11.879761 10.177713 2.693575 2.000000
21.278859 -4.897874 7.790051 0.000000
-16.122480 -19.323796 0.367568 2.000000
22.027629 -8.478928 2.855499 2.000000
-15.132917 -23.428941 3.527575 0.000000
-1.238016 24.900414 14.621572 0.000000
7.904913 -9.017586 0.758985 1.000000
-4.498578 10.203788 5.934649 1.000000
-2.583099 22.350053 1.763802 2.000000
11.491281 -19.785749 6.754767 1.000000
-12.111607 -13.595958 8.717059 1.000000
6.098844 23.506603 8.092757 0.000000
-15.932980 17.702947 14.127850 0.000000
-16.767207 -9.006359 2.428618 2.000000
-5.031850 7.129487 4.320585 0.000000
-5.584683 -8.130670 11.486793 1.000000
20.382762 16.682618 3.066506 1.000000
13.024434 15.569905 12.306452 2.000000
7.442362 -8.613075 5.930452 0.000000
-1.319407 -3.485424 2.507563 1.000000
18.819611 15.595133 5.968751 2.000000
8.734147 2.922817 12.345147 2.000000
6.402517 -5.283765 6.605351 2.000000
-17.100658 9.613016 9.452168 0.000000
24.577791 -21.318190 1.602684 1.000000
-13.296998 10.230447 8.360764 0.000000
-1.623654 10.832985 14.602653 1.000000
-19.971637 4.403999 10.107761 0.000000
2.173083 -24.215468 11.265642 1.000000
21.446897 24.560538 2.828125 0.000000
23.262864 -12.820273 10.807337 1.000000
1.385394 -11.258486 3.432505 0.000000
-12.707648 7.876439 9.385298 0.000000
-2.799678 -23.605855 6.837463 2.000000
6.992314 -3.954375 2.408075 0.000000
17.598192 1.941586 4.728681 0.000000
-9.235239 18.436630 8.608024 0.000000
18.917617 21.218738 0.513667 1.000000
3.294342 -9.708150 12.286266 0.000000
-14.614124 14.504822 2.652749 1.000000
11.204367 -23.399545 4.043993 0.000000
-24.426728 1.052528 12.147935 0.000000
3.697171 17.970088 2.926536 0.000000
4.701228 -10.992918 10.284372 2.000000
-18.404930 1.373200 3.764897 2.000000
-12.730769 -21.838579 1.901589 0.000000
-18.128021 -10.040052 1.945151 1.000000
8.879986 8.857742 5.015555 1.000000
12.460255 17.491343 5.348957 0.000000
-4.299540 23.661425 2.640656 0.000000
11.612980 14.272556 3.505271 0.000000
-21.529599 16.496879 13.621468 1.000000
-17.244264 -5.257331 3.524872 0.000000
16.664763 4.424782 13.718198 1.000000
-20.273072 -0.565946 13.852656 1.000000
19.599849 6.234628 5.087548 1.000000
-10.851311 7.571307 5.024601 1.000000
5.018190 10.845366 4.695517 0.000000
17.712609 21.137012 9.246683 1.000000
23.887321 -7.498472 12.551024 1.000000
11.732906 2.851113 5.575937 2.000000
15.789911 19.731104 2.108463 1.000000
-20.549439 -13.373523 0.384050 0.000000
-8.961304 -1.167298 13.971199 1.000000
2.455723 12.201808 8.204148 1.000000
0.578941 10.818317 9.376647 2.000000
-22.573816 -5.209078 3.303068 1.000000
-4.570609 -1.331210 3.237060 1.000000
1.321342 -9.740489 5.348583 2.000000
-18.360997 -0.145891 1.830343 0.000000
-23.179081 8.394390 2.235390 1.000000
-2.355483 -24.841555 7.524363 0.000000
19.777450 1.688699 4.578558 2.000000
-16.564759 -20.571312 2.615646 0.000000
-6.768957 -13.489686 9.821646 0.000000
-21.917689 23.480913 12.796887 1.000000
12.149680 -19.566619 5.551880 1.000000
-2.727394 -2.634635 3.041709 2.000000
-7.964941 -12.471847 14.002625 1.000000
13.891895 1.810691 6.822460 0.000000
20.991290 -16.869385 4.365959 0.000000
17.779672 -20.384892 11.498190 2.000000
-9.939546 -8.861465 9.796771 1.000000
-18.019275 -1.602074 14.902870 1.000000
18.583613 -10.743549 8.183903 2.000000
-17.476633 -13.890284 3.884373 0.000000
-9.505191 -14.513203 5.505291 1.000000
-3.998526 16.858671 3.301667 2.000000
22.618599 -23.304133 2.952606 0.000000
5.635491 -4.646062 2.033219 2.000000
11.280641 -0.172488 11.848221 0.000000
-5.525719 13.182626 1.757658 1.000000
23.203250 8.309265 14.664020 2.000000
7.030171 10.487152 14.265111 2.000000
-19.813881 1.292857 9.136300 0.000000
10.863945 -14.047847 6.790394 0.000000
1.426881 4.400853 12.644580 2.000000
-19.008837 19.523605 7.815242 0.000000
-13.413049 9.389183 9.473065 0.000000
4.750064 1.848205 4.162299 2.000000
-6.991888 -24.573672 0.412836 1.000000
11.747817 14.495036 5.306813 2.000000
-6.294886 -23.055008 0.601819 0.000000
-11.254454 -17.127654 14.083703 1.000000
11.038153 8.769585 3.310894 1.000000
-4.876485 9.155300 14.855217 0.000000
-17.239126 13.191249 2.839656 1.000000
17.660664 7.767481 2.638205 0.000000
-2.682232 15.478153 4.753375 2.000000
-11.342382 -0.647376 2.059535 0.000000
11.549329 23.897966 6.513505 0.000000
-2.868865 24.374119 1.907996 0.000000
12.027771 15.047250 3.868814 0.000000
-9.024624 -23.432183 4.994612 0.000000
12.483647 13.068129 14.751699 2.000000
8.610077 -11.969564 2.073170 1.000000
-13.301209 2.475361 2.909039 2.000000
-10.371096 21.505013 7.730505 2.000000
23.707604 17.246457 1.440530 0.000000
12.089234 -14.395481 5.202225 2.000000
-6.571603 -11.632828 12.476267 1.000000
22.216313 -4.996995 0.172696 1.000000
-23.748623 2.531123 8.482263 0.000000
14.853393 -18.673195 3.426021 2.000000
24.818434 9.182669 9.738820 1.000000
23.407733 14.642174 10.724944 0.000000
2.593051 -7.404328 2.395317 2.000000
-13.207998 2.854119 1.046243 0.000000
7.141623 13.660093 0.686098 0.000000
-7.601464 7.403927 12.398234 0.000000
-1.856976 -1.735463 10.093209 2.000000
-1.447876 -1.712691 14.921645 0.000000
-4.119493 4.910730 0.416705 0.000000
-7.523162 17.275714 12.899515 1.000000
5.155031 24.362726 11.276119 1.000000
-23.226717 -22.732231 8.853360 1.000000
21.628269 -19.305720 5.514079 2.000000
12.013907 -19.379884 9.627518 0.000000
13.338639 -5.501077 14.793263 0.000000
-1.150527 -20.197025 7.115215 0.000000
-13.984264 -6.459966 13.039935 0.000000
-13.563048 21.439875 12.800037 0.000000
3.617452 2.530579 8.000103 2.000000
-5.665319 -4.046414 13.034012 2.000000
13.342457 14.890716 11.006423 0.000000
1.252434 -17.738971 1.048816 2.000000
-24.270893 -23.509281 6.481362 2.000000
-13.655779 0.090022 13.193598 1.000000
10.256856 13.053465 5.133113 1.000000
14.374082 21.512948 3.767017 0.000000
-4.720700 -12.119790 6.465683 0.000000
-1.169559 16.451216 0.085156 1.000000
-9.054312 15.191908 11.961847 2.000000
-17.489163 -6.998403 2.897392 1.000000
22.181082 -13.089713 3.589636 2.000000
-1.141659 10.418142 11.868075 1.000000
-7.658973 7.308788 12.922682 0.000000
-23.892544 24.848601 0.120144 0.000000
-17.806204 17.476200 10.281224 0.000000
22.369246 -7.866599 10.874974 1.000000
-4.006972 -19.337351 8.208397 1.000000
-3.816829 12.412392 7.007768 1.000000
-16.620496 -16.575200 6.413142 2.000000
8.126202 8.427671 4.603117 1.000000
21.586979 -20.700102 9.954206 2.000000
22.847534 7.674747 5.551727 1.000000
2.210694 -16.133483 3.080817 1.000000
-14.438724 -21.672862 6.187081 1.000000
12.431450 3.260399 3.112395 1.000000
-6.662262 22.187404 5.510238 2.000000
-10.478304 13.262958 1.316800 2.000000
8.407482 20.856232 0.783227 0.000000
23.678883 17.185888 6.302414 2.000000
7.037414 -15.402204 0.654810 2.000000
-20.493594 12.335768 7.594980 0.000000
-13.232674 -10.939070 8.958310 1.000000
10.142061 -21.522380 1.663609 1.000000
-9.958021 17.064703 14.436654 0.000000
19.562462 17.925414 9.359291 0.000000
10.489580 -6.797195 12.263035 0.000000
21.628866 9.756258 9.262867 0.000000
22.709023 -14.774123 14.914766 1.000000
-16.527882 21.236105 10.677250 2.000000
-3.097877 -21.062722 3.675099 1.000000
2.818332 21.401886 13.291574 1.000000
14.796238 -6.216737 2.961225 2.000000
-11.412548 6.899764 3.351368 0.000000
2.631112 19.861185 4.256294 1.000000
-24.224088 23.657474 1.037898 0.000000
-9.155926 -12.955638 7.177145 0.000000
-15.136864 -3.252944 12.640876 2.000000
5.353680 17.295656 8.908977 0.000000
-9.910836 7.932563 1.667469 2.000000
24.320878 -11.096638 6.252462 0.000000
-24.171414 -6.592460 4.716853 2.000000
5.396857 -19.900637 2.371670 0.000000
-4.531344 -13.851999 0.734534 0.000000
-0.692162 23.177344 6.229730 0.000000
-23.918333 -7.247992 12.099712 1.000000
-8.019765 -2.218845 12.495331 1.000000
1.851409 -2.172611 6.391170 2.000000
-23.133526 8.439419 3.724526 1.000000
-17.836128 -11.638480 3.646413 0.000000
-22.002297 12.945192 11.475280 0.000000
14.274101 -11.835862 13.061693 2.000000
-3.858063 -12.399861 14.333073 2.000000
22.178364 -20.510559 1.258681 2.000000
15.034073 12.204006 1.389840 1.000000
-17.589262 -3.717865 12.190345 0.000000
13.771226 15.819997 1.519963 2.000000
20.468598 20.784721 7.275466 1.000000
13.826099 24.413111 0.708206 1.000000
-15.185156 19.190476 3.853729 0.000000
-15.134147 -12.283258 0.044558 1.000000
1.308877 2.303575 2.584407 1.000000
11.116064 15.076827 2.102589 2.000000
-10.299126 2.329020 4.128726 2.000000
14.619545 -7.170734 14.052115 1.000000
7.860804 -0.856627 1.808832 1.000000
-14.881192 3.856100 10.315691 1.000000
17.547460 20.648927 12.175814 1.000000
-15.021958 13.298500 11.729334 0.000000
-18.603849 -22.505597 12.715626 0.000000
13.951434 21.148839 9.778229 2.000000
-4.870252 4.681251 4.447055 2.000000
-2.787187 12.504560 3.842469 1.000000
23.614575 11.691091 14.782784 0.000000
13.731956 22.169646 5.553180 1.000000
7.935907 -2.305117 8.498841 1.000000
-15.007367 2.754394 10.854218 0.000000
-16.468928 24.564359 11.303305 2.000000
-12.821623 -24.615525 11.787786 2.000000
3.887064 -22.932775 14.207573 0.000000
-21.847520 4.655756 11.878964 0.000000
16.717296 -23.667282 6.297523 1.000000
-2.068673 -2.446662 3.565761 0.000000
21.075480 5.278084 2.294174 0.000000
0.338574 -14.977768 6.435213 2.000000
23.773407 21.462606 2.165219 1.000000
-9.007937 11.007923 1.446623 1.000000
-7.095515 -15.777230 3.635789 1.000000
-8.540888 -8.296677 14.337431 2.000000
-6.325073 -20.616702 13.980924 1.000000
21.914051 21.062776 4.626802 1.000000
8.730471 -18.703357 4.611335 2.000000
-11.756356 -23.691429 14.002636 2.000000
-4.440593 -17.721966 10.383992 1.000000
10.342442 -21.813065 7.591812 1.000000
0.753369 -2.038325 10.031593 2.000000
-15.514167 17.499996 8.629497 2.000000
12.883506 -13.418452 1.026186 0.000000
-21.101872 -10.410308 1.198019 2.000000
-18.324375 -21.589403 7.430762 2.000000
24.876033 7.660195 9.660172 0.000000
-9.671977 -6.215240 3.351529 0.000000
9.611537 -15.649819 8.655719 1.000000
-5.656372 -19.669595 5.526321 0.000000
3.944093 -13.537641 6.598805 2.000000
0.144473 8.212884 4.967810 0.000000
-21.080669 19.185540 10.850528 2.000000
-12.096030 19.064431 11.145956 0.000000
13.941529 10.542815 3.285406 2.000000
-17.114355 2.361041 0.846931 0.000000
13.114526 15.967522 11.468186 0.000000
15.506186 -17.403043 13.654315 2.000000
5.333519 -4.682496 5.195144 0.000000
-9.161668 -9.280893 10.984237 1.000000
-5.182013 21.214524 5.503073 0.000000
4.038222 -9.822172 2.601978 2.000000
-0.005862 -19.157463 12.117714 1.000000
16.299748 24.127144 7.232888 2.000000
-1.701007 -11.919071 6.254425 1.000000
-10.760556 15.830101 1.512392 2.000000
23.468835 -6.553458 11.545332 2.000000
-13.662707 9.351298 4.206861 1.000000
-5.113787 22.509538 9.646482 0.000000
2.991000 -11.792764 7.838182 0.000000
5.813884 -0.241904 9.269161 2.000000
-5.168760 5.234662 3.770599 2.000000
-23.935268 4.086114 0.021715 2.000000
4.418425 0.984258 8.702633 1.000000
4.771618 -23.916485 14.501013 2.000000
-15.607239 15.219424 6.320864 1.000000
-11.647204 2.154434 11.610530 0.000000
17.734416 24.563255 12.934681 0.000000
-9.126927 3.879578 7.782748 1.000000
-3.866782 7.665783 1.019199 1.000000
-9.775844 -11.459545 9.564031 2.000000
10.479784 4.669447 3.374307 2.000000
20.101843 6.789651 13.124589 0.000000
2.579915 -1.713138 3.905101 2.000000
-6.739438 -10.940328 13.799392 0.000000
7.411861 -16.375712 14.832185 2.000000
15.146861 22.172889 1.164887 0.000000
-4.618977 -14.111432 3.756795 2.000000
-0.158386 11.911916 7.297867 0.000000
3.225178 -4.653790 12.442480 2.000000
-13.738421 17.341415 3.409953 0.000000
2.840627 -23.930577 13.373409 2.000000
-0.883440 -19.332572 14.481491 2.000000
20.260572 16.866819 1.380830 0.000000
-3.292250 1.177823 4.502087 1.000000
3.750363 24.282465 14.730783 2.000000
-11.822828 -10.454432 10.120010 0.000000
22.691808 -4.134302 2.655953 1.000000
-6.787744 -0.321984 8.279684 0.000000
8.727277 13.343251 5.424233 1.000000
19.201911 -4.728402 0.095673 0.000000
-23.931671 -20.491155 12.821511 2.000000
0.823575 11.355134 3.829849 1.000000
-4.782641 -20.694106 10.463088 1.000000
2.348799 -1.254527 12.380882 2.000000
20.715647 -11.365496 5.081583 2.000000
6.202954 -14.454746 4.299756 1.000000
-6.020853 7.448227 1.386178 0.000000
-15.319123 -4.808369 8.053838 1.000000
-24.583433 -5.638015 7.512638 1.000000
-4.099178 -8.763959 6.544221 0.000000
-10.559423 -24.801813 13.165885 2.000000
8.751402 15.340442 9.956490 2.000000
19.234599 -2.004781 0.104713 2.000000
-3.000165 -5.904288 13.890206 2.000000
0.677214 -18.154515 11.220239 0.000000
-5.658729 -3.920432 1.852011 1.000000
7.512817 11.989118 4.755874 0.000000
-19.689979 10.367985 1.315625 2.000000
-17.044291 24.670036 10.716194 1.000000
10.985826 -0.534500 14.868374 1.000000
-3.429560 -17.295644 8.597014 2.000000
-3.074935 -14.164636 8.643112 2.000000
6.895410 -8.783782 3.954195 2.000000
-9.918929 -13.952239 11.973164 0.000000
-23.534392 14.742293 14.790134 1.000000
-14.137383 -23.071560 10.051455 1.000000
-16.906855 13.120462 5.453809 0.000000
-5.415602 -10.733789 4.570398 2.000000
-13.664443 -23.885605 6.605733 2.000000
15.097063 9.419275 9.092495 0.000000
12.264205 -16.422454 1.450199 1.000000
-16.321509 -2.638594 2.781339 1.000000
-21.925908 11.297808 12.319598 1.000000
-24.093129 -6.436560 0.336270 1.000000
-6.845938 17.714543 10.114919 0.000000
-14.504180 -4.838433 13.412255 2.000000
20.132495 -6.143506 9.841892 1.000000
20.808226 -9.946144 8.662943 1.000000
-6.920908 -2.481751 3.798191 2.000000
7.418884 16.827864 3.838879 0.000000
-20.549462 2.533076 5.717799 1.000000
3.103102 12.415671 10.575124 0.000000
1.656368 21.261102 10.074832 1.000000
-17.897520 -4.247917 3.910561 1.000000
20.738896 -0.770654 11.948405 1.000000
-19.164135 4.938234 6.942503 2.000000
16.619671 21.473649 5.354206 2.000000
23.316566 14.199507 8.787074 0.000000
12.001027 -13.872840 1.250556 2.000000
-6.509064 17.021100 4.101095 0.000000
-11.220756 16.479902 11.820529 2.000000
-6.934414 22.386947 4.874775 2.000000
-24.155658 4.752414 10.190884 0.000000
-1.585284 13.888700 10.342075 0.000000
-16.476120 0.194037 7.390695 0.000000
14.904587 -0.330264 0.881806 0.000000
7.074061 -21.808325 11.658867 1.000000
-4.791308 5.342664 1.891519 1.000000
-22.153725 8.803059 9.403736 2.000000
-14.779110 -9.146305 11.550352 2.000000
2.928115 6.604447 10.257854 0.000000
-20.241230 17.266045 5.240775 0.000000
-2.139800 24.155254 11.565839 0.000000
-1.942773 14.983094 9.876971 1.000000
-0.768541 23.860864 9.350398 0.000000
-18.351266 -1.383054 2.401246 0.000000
-9.261738 6.194883 2.870881 2.000000
7.893676 16.295046 10.472497 0.000000
20.517012 23.970817 11.277956 0.000000
7.722985 6.651368 11.980253 0.000000
-14.560825 -8.053592 5.175686 2.000000
-24.240970 -7.851666 6.790517 1.000000
23.229804 -22.992020 8.722990 2.000000
-16.501410 2.162862 9.690237 0.000000
17.006517 -10.128564 6.401585 1.000000
-23.499427 -3.474215 11.986540 0.000000
-1.831449 19.185605 11.873318 1.000000
16.834186 -14.124749 12.837905 2.000000
20.852975 2.205128 6.992936 2.000000
11.299968 18.511692 6.909102 0.000000
11.758609 -8.268879 7.629146 0.000000
-16.066125 -10.207755 4.309048 0.000000
-11.843189 19.957843 3.030787 0.000000
-18.182925 -4.363059 4.227690 1.000000
4.661922 -7.998012 4.057590 0.000000
-12.423788 -0.416956 7.960594 1.000000
1.734007 -6.491410 11.841690 0.000000
-20.871539 -15.797913 12.802983 1.000000
-12.226752 19.167765 0.034894 2.000000
3.592592 -11.633981 14.404336 0.000000
-4.763756 -9.240431 0.099980 1.000000
-8.533844 3.889331 13.268378 0.000000
8.125795 -3.947902 13.745964 1.000000
4.591342 0.265343 6.041195 0.000000
19.822546 3.481923 6.889695 1.000000
14.357515 3.862631 1.223510 1.000000
-0.950466 -21.149516 8.650835 0.000000
6.361702 0.128527 12.855795 1.000000
-1.309715 -22.389164 9.843631 0.000000
-15.116977 -17.288275 14.668927 1.000000
-14.890162 11.557036 12.389230 0.000000
9.860679 13.035868 4.235644 0.000000
20.214274 -11.578519 0.581581 0.000000
23.521741 -22.765695 5.545144 0.000000
23.589532 -17.523133 13.687546 0.000000
-10.880145 17.150453 2.012987 2.000000
18.694447 21.780037 6.472464 1.000000
13.086867 -1.749215 14.129608 0.000000
6.728159 13.709456 12.490792 0.000000
12.482491 13.004718 5.144941 1.000000
4.654962 15.784207 0.803561 1.000000
10.753512 -13.843602 8.536540 1.000000
23.136496 -11.762787 8.837489 0.000000
-9.839015 -12.113213 0.562786 1.000000
11.972855 8.263738 10.444271 0.000000
0.185311 -15.836949 9.208495 0.000000
-17.944020 11.176190 7.850147 2.000000
12.279922 17.612018 1.043021 0.000000
10.112790 -21.135944 14.503267 2.000000
-24.487180 22.874868 4.545430 0.000000
23.486752 1.771286 14.690473 0.000000
-3.928192 1.142072 9.363752 1.000000
11.268454 -24.646393 13.179544 0.000000
-10.373444 -9.590555 14.814946 2.000000
-10.940055 -5.261037 1.575819 2.000000
11.759138 15.611816 11.764602 0.000000
2.616614 13.980776 7.999212 0.000000
19.287439 12.155833 4.329871 1.000000
-17.579555 -6.088004 5.252263 2.000000
12.671107 -12.101914 11.041109 0.000000
5.086924 -23.521864 7.429381 1.000000
-20.357139 4.808018 7.751975 2.000000
18.106081 -17.321704 8.176984 1.000000
12.485247 -21.374306 3.233125 1.000000
6.846687 -3.661661 7.634226 0.000000
0.620662 15.669367 13.158158 1.000000
16.346728 -21.773329 2.437803 1.000000
3.097044 8.415342 6.824182 2.000000
-1.028852 2.824601 13.246573 1.000000
-19.727587 5.586304 14.690964 1.000000
-4.763010 -0.410113 6.286496 0.000000
3.485472 24.124978 2.308723 0.000000
-4.404807 -23.396567 0.173276 0.000000
-2.605314 3.013766 6.988684 1.000000
-19.726816 11.979614 10.311955 2.000000
2.605262 18.970532 2.674773 2.000000
-2.617718 13.318235 2.826370 2.000000
1.072529 11.133367 6.633699 2.000000
16.237066 4.738339 7.245637 0.000000
12.658595 -17.353165 3.081041 0.000000
11.260438 12.125996 6.889116 0.000000
17.277869 -12.924995 12.840483 1.000000
-19.036661 -3.044442 0.032759 1.000000
22.004722 -8.686418 5.287202 1.000000
10.708156 -21.354532 2.962209 2.000000
17.505351 23.702091 6.940317 0.000000
1.015995 -21.830687 8.646717 1.000000
-13.962616 2.543186 12.503475 1.000000
3.906580 -24.518480 12.798457 2.000000
-13.627696 -10.501363 13.214364 2.000000
-7.355163 -6.456112 4.575797 1.000000
-22.779910 21.236110 3.667898 2.000000
12.575174 6.779110 3.241915 1.000000
5.914295 3.195446 2.667386 2.000000
4.685182 9.748596 11.132198 0.000000
11.552154 9.210809 9.860501 2.000000
-18.899600 -15.097174 7.084806 2.000000
-11.960867 22.949716 3.563255 2.000000
5.506064 -6.462153 4.894166 0.000000
4.143018 3.474933 13.865315 0.000000
-20.524051 -21.841097 8.774322 2.000000
-22.908538 -9.582129 2.663922 1.000000
-6.314201 -17.829847 3.016440 0.000000
-1.068180 14.956477 1.073567 0.000000
-7.510070 -22.865109 12.563088 0.000000
-12.125615 18.557770 10.140977 0.000000
21.834559 15.794027 12.058796 2.000000
22.283020 14.574332 8.060690 2.000000
-10.950903 -1.289287 4.549814 0.000000
18.663962 -6.507598 10.521460 0.000000
19.016879 -12.927300 0.016780 1.000000
21.860968 16.407369 5.014284 0.000000
24.622679 -8.851992 12.408001 2.000000
11.898607 -11.303455 0.242707 0.000000
-12.291827 24.425552 1.176447 1.000000
-10.742656 -4.395353 1.990992 1.000000
-21.235892 16.153893 9.527934 1.000000
-12.370485 2.895505 12.292269 1.000000
-16.189885 -15.730402 10.375785 0.000000
5.184986 -6.258734 7.660427 0.000000
5.901261 11.480036 5.917700 0.000000
-24.489312 -4.307437 10.163703 0.000000
17.445693 -5.026645 1.038974 2.000000
-3.580626 7.872559 5.992928 2.000000
22.162652 6.688542 8.106862 0.000000
9.670597 4.254187 8.657860 2.000000
2.373698 -5.775410 7.236699 1.000000
-14.314835 -4.677654 11.954971 2.000000
-0.306297 3.172872 0.499961 2.000000
-7.297990 14.021226 13.624299 0.000000
-2.092826 20.069475 10.619847 2.000000
21.654294 -7.003101 9.637841 0.000000
-21.073024 12.357004 13.094332 1.000000
-12.261237 -20.926649 5.889839 1.000000
-24.341228 -16.259515 7.016207 0.000000
13.432162 20.175039 4.032814 1.000000
-13.925909 12.118371 8.476137 0.000000
-17.857287 12.912940 9.803059 0.000000
5.951725 -0.595758 13.128223 1.000000
-8.699515 9.628091 3.365292 1.000000
5.380589 -12.336899 12.821481 2.000000
-11.610099 14.964568 9.295024 0.000000
-14.595843 -18.993457 5.743658 2.000000
0.250199 -23.504039 6.392743 1.000000
24.147007 -15.958860 8.690127 1.000000
1.149031 -3.941458 1.105216 0.000000
-3.780380 -4.999009 4.663180 0.000000
18.683502 -0.127476 0.334834 0.000000
0.530850 -19.824715 13.533322 1.000000
1.876438 -6.495028 13.820121 2.000000
22.531533 -0.646634 4.227169 2.000000
-5.577301 17.506523 7.835063 1.000000
-19.782329 -2.919426 6.241995 2.000000
20.215265 -9.442764 9.047400 1.000000
22.142467 -7.892174 9.105184 1.000000
-23.177278 2.829657 1.923820 1.000000
-10.698285 5.326443 13.119403 0.000000
7.441081 -24.178334 4.441738 1.000000
-14.966713 -4.481799 11.211035 0.000000
-16.914084 15.680773 9.940907 0.000000
13.581793 -5.035454 14.711982 2.000000
1.954633 11.798529 9.321896 0.000000
-0.822579 20.768893 7.116886 2.000000
14.554796 -9.922955 7.832195 2.000000
-7.054110 -17.804936 5.015520 0.000000
-16.472441 11.191925 1.043499 0.000000
-14.679634 9.546243 13.794453 0.000000
-24.759254 2.250915 2.136493 0.000000
-5.753316 -4.776103 10.963294 1.000000
-17.099135 -6.474275 14.628987 1.000000
-3.406775 10.680884 3.864850 0.000000
-4.563191 -19.369752 2.659070 0.000000
-4.073020 22.218345 6.807748 2.000000
18.809530 11.649715 14.059827 1.000000
10.528733 -21.044065 12.767241 0.000000
-5.265004 -4.114683 2.297149 0.000000
-3.743503 -22.282363 13.239733 1.000000
-8.098932 -16.095926 8.270661 1.000000
-11.328389 18.624300 3.879217 2.000000
-2.621299 -14.303890 3.000870 0.000000
13.439907 15.547097 4.537216 1.000000
-20.931945 -18.153812 13.293556 0.000000
-17.805546 9.145552 2.449949 1.000000
0.781108 18.830883 7.702675 2.000000
-18.803425 -0.811422 7.714090 0.000000
21.108851 24.180686 1.496217 2.000000
-0.080677 13.724793 10.035960 0.000000
8.722938 -11.422103 8.677737 2.000000
13.997067 -1.019503 13.491017 2.000000
-14.042382 -20.396729 7.410939 0.000000
10.457113 -18.263907 12.572080 0.000000
-9.062891 -16.720740 6.913498 0.000000
7.418924 -23.672425 6.029280 1.000000
9.648746 -23.640266 4.206202 1.000000
5.743884 -10.524470 7.570658 2.000000
-4.427703 -19.442010 7.072142 1.000000
-7.855324 -17.462964 5.697983 0.000000
21.348559 14.385374 6.818785 0.000000
-14.019231 -13.573336 12.764797 2.000000
-20.200337 18.880876 12.415184 0.000000
-21.333832 -9.843253 12.971069 0.000000
-2.090678 22.004407 5.112066 1.000000
8.809714 -19.575478 3.610848 1.000000
18.523430 -22.426140 6.595982 0.000000
-20.107230 3.208065 6.167499 1.000000
24.550773 -16.589112 3.436582 1.000000
-24.591900 -12.229512 4.396281 2.000000
3.677019 10.404202 14.235766 1.000000
7.122577 -15.689755 4.589967 1.000000
6.872973 -1.185520 9.318504 2.000000
13.813461 -17.772661 2.253855 0.000000
21.027117 -7.090987 12.493112 2.000000
10.988279 -7.264181 1.436961 2.000000
-19.097177 12.195757 13.637069 2.000000
-5.580865 0.434107 12.978110 2.000000
1.720886 5.547120 13.289357 0.000000
5.287219 5.386949 13.422226 1.000000
12.637180 -24.197529 12.854119 2.000000
14.441305 -8.326322 1.408957 1.000000
-13.075876 16.660399 2.472318 2.000000
9.894638 17.060911 12.201050 2.000000
14.055502 20.551148 8.407305 1.000000
-2.662409 10.371503 11.901783 2.000000
19.370413 3.718922 9.069273 2.000000
-24.490084 10.244188 9.959084 0.000000
-24.992627 -9.028393 5.973727 0.000000
-23.785728 12.981942 5.787901 1.000000
-11.585780 -2.121544 3.194066 0.000000
-6.812144 1.172059 13.017748 0.000000
2.998458 -22.367181 8.280693 1.000000
3.458020 20.160440 1.974853 1.000000
-15.104715 -14.129894 8.705884 2.000000
-15.100317 -0.633879 8.130960 1.000000
-8.301155 23.884928 10.688141 0.000000
-1.326329 6.973643 1.864037 1.000000
8.442374 -6.953442 13.172524 0.000000
7.644517 3.129893 8.083180 1.000000
-4.630222 7.044656 10.756220 0.000000
-7.350037 -14.639286 6.324036 1.000000
12.383223 -24.943823 12.444788 2.000000
17.959325 13.104746 3.430656 0.000000
-18.342558 18.751545 12.845483 1.000000
7.828468 -24.774885 14.301025 0.000000
14.799987 13.919740 4.969942 1.000000
-19.151560 0.725098 1.821323 2.000000
-6.514439 11.425809 7.757570 0.000000
-9.900292 0.456960 6.228046 0.000000
-14.176639 20.467362 8.764240 0.000000
-17.136698 13.948309 6.305105 2.000000
21.518919 10.473338 4.594793 0.000000
-14.805553 11.392021 12.040209 2.000000
22.487272 11.525423 14.723661 0.000000
-12.488582 -7.704753 13.453813 0.000000
16.610353 -2.093885 10.438687 2.000000
21.502527 -0.444002 14.084825 1.000000
-20.157616 -6.978834 11.010401 2.000000
-11.402246 2.285315 6.746584 2.000000
-7.298124 -22.722234 12.697085 2.000000
-2.365080 -12.332232 5.083226 0.000000
-18.757799 2.242714 2.543289 2.000000
-8.416282 -0.329479 8.713030 0.000000
16.237859 -23.222704 9.592887 2.000000
10.733639 2.976425 14.693250 2.000000
-17.462944 18.144352 8.477982 0.000000
-19.253819 -13.128911 13.270057 1.000000
2.366759 18.092658 9.792177 0.000000
18.349315 -18.465014 5.831841 0.000000
16.389569 14.564096 9.613588 1.000000
-7.942696 -16.591449 5.529447 1.000000
2.414177 17.076762 7.885781 1.000000
-9.084295 21.498693 9.944193 0.000000
-5.141399 -0.659900 6.370926 2.000000
1.806895 20.437139 9.609383 0.000000
17.067218 17.454755 2.201930 2.000000
24.396671 23.968931 4.270306 2.000000
15.167322 3.410562 0.742316 1.000000
0.395301 -23.661436 12.508793 2.000000
2.852245 20.113076 11.564832 1.000000
19.684076 -16.911257 8.355011 0.000000
-6.235446 19.349284 9.356373 0.000000
0.603292 -23.755777 9.872077 2.000000
17.873970 -13.928582 1.075017 2.000000
-18.096022 14.150129 14.987193 2.000000
7.266683 -10.202128 11.539859 0.000000
-1.671654 21.932252 13.249817 2.000000
22.496776 -16.370629 8.261899 0.000000
-14.811798 9.921686 7.464795 2.000000
-10.074217 -5.523850 5.489769 1.000000
-22.957565 22.804600 5.709884 1.000000
-17.006526 -13.421089 11.890643 1.000000
-10.429217 -8.473995 9.939776 0.000000
20.363521 -20.560615 10.707991 0.000000
-7.320080 -3.715250 13.809660 1.000000
3.911023 18.880054 9.516611 1.000000
7.727980 14.098255 4.540229 0.000000
-17.383204 -21.259957 3.300907 0.000000
13.146340 5.996850 6.707189 2.000000
24.040471 3.741494 0.156564 1.000000
2.252292 8.497027 14.177211 2.000000
-11.496610 5.694607 7.133746 2.000000
17.580205 -18.835544 1.285040 1.000000
22.541741 -3.145273 6.429077 1.000000
-10.547539 1.813564 1.153761 2.000000
4.115548 5.020399 4.120504 2.000000
-12.415872 20.394770 11.749583 0.000000
-19.936222 19.207366 13.103880 2.000000
-13.484203 13.687202 4.298356 2.000000
-18.238142 4.336213 6.090366 2.000000
14.229515 5.550518 4.771623 0.000000
-16.227607 -24.547484 12.569081 1.000000
-17.075652 -4.633778 7.576967 0.000000
-16.962618 6.320258 14.810520 1.000000
-16.022342 -6.659901 11.131245 2.000000
-24.228706 21.563363 11.495543 0.000000
18.137678 -7.497827 0.620985 1.000000
-19.317072 -8.150267 13.352315 0.000000
-9.655882 -16.145695 14.595676 0.000000
-18.911663 -4.927777 0.280260 0.000000
5.256084 -18.835254 5.740274 0.000000
-16.784638 -5.213736 13.853899 2.000000
-13.183157 -2.846527 5.393885 1.000000
-2.555914 3.982013 14.059634 2.000000
5.655608 -14.621685 8.252999 0.000000
-24.991999 -15.146326 1.093519 1.000000
13.845110 3.955992 7.207067 1.000000
-9.289071 -9.766899 10.380593 0.000000
14.555063 16.882087 13.129959 2.000000
21.868943 -24.942808 6.763429 0.000000
-5.211539 17.335317 10.088888 1.000000
18.101758 -7.029723 5.638047 0.000000
22.903342 -15.382301 6.103634 1.000000
-15.096107 -14.522259 5.020622 2.000000
3.783439 -5.013836 2.456007 2.000000
17.044304 23.877462 9.130129 2.000000
-19.105627 -8.135095 11.962335 0.000000
16.552289 -0.009580 4.360658 0.000000
-17.545246 14.195070 14.427381 2.000000
24.670738 24.578876 3.692971 0.000000
-13.066405 -22.091557 13.507527 0.000000
-1.524222 0.963875 3.819423 1.000000
-6.045980 -17.199248 6.540534 0.000000
22.630616 -12.719582 3.981726 0.000000
-12.147132 23.833188 2.833334 0.000000
-3.926674 24.990871 9.611084 1.000000
-13.610382 -22.985446 13.599867 0.000000
-19.682777 22.228271 6.285941 2.000000
3.228085 7.529472 4.032875 1.000000
5.119248 -15.765621 2.403681 1.000000
22.987010 -24.341235 7.347882 2.000000
8.576221 -1.160823 2.371533 1.000000
-20.150864 16.513804 2.860818 2.000000
24.282864 20.137269 5.909819 2.000000
24.138063 -15.163218 7.178458 2.000000
15.540167 -18.952946 9.761545 2.000000
14.602804 12.421284 13.506170 0.000000
-3.427199 -3.275194 8.940879 1.000000
-2.390094 -21.985445 5.735611 0.000000
-7.664302 -12.725675 8.929449 0.000000
-22.932610 9.309305 13.047514 1.000000
-19.978108 -2.203701 1.242246 1.000000
3.071034 23.061303 8.234615 0.000000
5.336148 -9.264052 0.570200 2.000000
18.691481 23.254397 13.313206 0.000000
-16.816098 -10.932199 9.677733 2.000000
2.926076 15.548218 1.202256 2.000000
12.965607 -3.349097 12.887516 1.000000
21.256768 21.829369 10.886510 1.000000
-20.752300 -6.114026 1.372129 2.000000
-20.726714 2.672675 12.351470 2.000000
-13.979997 -7.596957 7.533760 1.000000
-9.881099 9.867480 13.483666 0.000000
-5.086772 17.852126 10.094874 0.000000
-23.615480 -20.921979 12.938045 1.000000
-20.275086 1.754110 1.099224 0.000000
1.429663 -12.016150 11.711342 0.000000
21.358558 -8.015393 4.697392 1.000000
21.591749 20.090082 0.172252 1.000000
-0.866201 -12.464814 10.572824 1.000000
23.463447 -16.305986 12.774703 0.000000
23.827550 17.463592 6.810126 1.000000
14.393245 -5.700572 5.636215 1.000000
7.726838 -23.863240 7.768521 0.000000
16.299263 0.122439 4.671709 0.000000
-14.322460 -22.422473 3.904336 0.000000
-14.888040 12.163415 2.494263 0.000000
-5.517442 5.109093 7.934650 0.000000
3.181113 1.735874 2.922079 2.000000
23.322205 2.818487 5.655144 1.000000
6.126125 21.849283 1.805955 1.000000
-2.646373 -20.872162 2.897312 0.000000
-4.762063 24.643614 12.254956 0.000000
-7.992008 7.519325 7.925604 0.000000
-17.253589 -7.707037 13.232291 1.000000
-4.012503 22.927076 12.936247 2.000000
-23.779442 -24.288968 4.955904 0.000000
17.708881 6.811671 14.674032 1.000000
-10.170324 16.632477 3.378634 1.000000
-23.839447 -5.920954 9.134609 2.000000
2.047087 -6.740432 12.975008 1.000000
24.063189 -17.823090 0.130701 2.000000
-3.439315 -15.153173 6.099908 0.000000
9.410275 -8.384359 9.244190 1.000000
3.912009 -1.575162 4.925956 0.000000
12.805315 -14.919662 4.662322 2.000000
-15.098804 -13.878470 10.557355 2.000000
18.133651 21.878388 8.220227 0.000000
-5.146248 -8.618283 9.262021 2.000000
8.841090 -23.981331 6.164810 0.000000
-7.208581 -21.468798 13.369386 2.000000
14.246602 -24.380828 5.534153 2.000000
-18.643951 24.984263 9.283208 2.000000
1.649585 14.284874 9.149193 1.000000
3.164273 21.888506 8.483991 0.000000
21.969966 2.827897 13.530310 1.000000
5.283297 -18.789064 12.516205 2.000000
23.031047 -12.231649 6.543644 0.000000
-11.752201 1.655083 1.130303 0.000000
-18.847319 -1.566849 3.987474 2.000000
20.400973 -11.547376 12.993297 0.000000
-6.201990 8.947571 14.356237 0.000000
-4.385323 9.240070 11.384711 1.000000
10.818156 -15.755235 13.794815 2.000000
7.350947 -19.004073 7.899394 1.000000
-17.239985 9.111618 14.513778 0.000000
23.556521 12.541598 9.379063 0.000000
-19.373744 -10.279255 8.806841 0.000000
-11.338183 -0.061802 2.352466 2.000000
-0.164118 5.431392 6.084008 2.000000
-8.795100 23.973187 13.774785 1.000000
8.509327 18.010558 14.897087 1.000000
-19.972921 4.104435 10.002539 2.000000
15.835675 -21.568137 13.477606 0.000000
-17.573397 7.966981 4.202383 1.000000
-17.338657 -10.339686 14.141895 1.000000
22.797224 7.298674 9.471385 0.000000
2.844500 3.614038 2.504004 1.000000
-21.144175 18.914464 3.185689 1.000000
21.120769 19.432179 0.571898 0.000000
0.353461 -20.573237 12.495970 2.000000
-0.121388 -9.561633 1.466272 0.000000
13.163120 13.086561 5.930357 0.000000
12.541614 11.689409 8.616862 1.000000
3.453952 2.538802 8.227104 1.000000
-7.407520 13.042400 7.541683 1.000000
19.520801 -17.468721 6.541559 0.000000
-4.667254 -8.631705 1.662321 0.000000
0.654036 15.465508 7.724474 2.000000
-16.795125 -13.642333 3.964580 2.000000
14.194715 4.059902 13.293516 0.000000
-16.355674 0.755862 9.188337 0.000000
-13.223191 -18.054892 0.974268 1.000000
13.306622 3.558211 13.330914 1.000000
-19.707171 -24.883626 1.293772 1.000000
-4.543278 -5.925248 9.928969 2.000000
9.376091 -10.165709 5.189535 0.000000
15.024704 -18.290585 6.180643 0.000000
-8.588323 23.903054 12.649886 2.000000
-5.760984 4.210841 2.347144 1.000000
3.390317 14.255399 11.890868 2.000000
21.155689 10.594960 14.172622 2.000000
12.525919 -20.230823 0.640771 2.000000
22.399352 9.312477 8.363140 0.000000
-12.426186 13.523113 3.642480 2.000000
-22.722627 -8.016374 1.047575 1.000000
-12.769355 16.105529 5.708237 2.000000
-3.960228 3.528344 10.264417 0.000000
20.431429 -16.341167 0.991914 1.000000
9.262309 -24.146025 5.207879 2.000000
-5.521733 20.902344 5.631240 0.000000
24.522349 4.852108 11.642010 0.000000
19.663827 23.748446 9.535076 0.000000
-4.409448 12.170647 1.000679 0.000000
-20.516519 6.215930 3.659179 0.000000
-21.573432 9.528005 4.979773 0.000000
-10.130652 -12.329990 2.134039 2.000000
0.715506 20.802873 11.595932 1.000000
-5.806060 23.954895 5.157339 2.000000
-8.354432 -21.064099 14.346738 0.000000
5.311293 20.756565 3.398952 1.000000
-0.196447 14.063949 7.104079 0.000000
-3.602537 5.032128 2.702971 1.000000
-16.771714 19.240287 1.753965 1.000000
7.343682 13.526024 2.751611 1.000000
-4.256814 18.615630 1.832534 0.000000
2.297425 10.509471 9.043397 1.000000
-14.909568 -22.172747 8.845204 0.000000
-14.843322 -21.773223 9.943411 2.000000
-12.550782 13.482553 9.365310 0.000000
-18.142903 -8.771809 1.999048 0.000000
-20.095316 -20.419969 3.008181 2.000000
-21.075791 -5.037271 1.245444 0.000000
18.823803 0.006007 4.510907 0.000000
23.401568 -1.936121 0.901347 0.000000
5.537875 1.172600 3.805407 0.000000
-23.811094 -11.713079 10.899657 2.000000
-23.472219 23.421437 4.247485 2.000000
14.156358 0.791753 4.063853 0.000000
23.502580 -18.618406 9.556356 0.000000
15.122265 -18.320065 12.928437 2.000000
-8.452006 -7.667291 4.948924 1.000000
15.432422 -22.016585 11.011059 0.000000
-1.080124 17.378776 11.511401 1.000000
-4.046248 -4.272626 12.017668 1.000000
17.324214 13.851166 8.457100 1.000000
2.559991 -10.651740 5.808689 2.000000
19.417806 7.381803 4.056064 0.000000
4.585989 21.482941 6.434990 2.000000
23.730353 -5.357381 1.041354 0.000000
16.742330 -22.018081 2.615779 0.000000
19.790531 -5.742160 5.565115 1.000000
-8.892389 -15.832163 10.677976 2.000000
2.758972 -13.579981 2.380900 1.000000
-21.339491 -6.095511 9.151060 2.000000
-0.060794 -10.205203 11.275483 0.000000
12.245479 12.060954 5.903352 0.000000
11.688523 -6.858720 0.634441 2.000000
-8.930665 -16.038752 2.097304 0.000000
-19.464407 21.733258 13.246805 2.000000
2.513126 -23.134574 10.642027 2.000000
19.933954 0.308131 8.836745 1.000000
-18.989401 -9.879374 13.897454 1.000000
-0.633586 7.664105 10.762264 2.000000
15.958424 -15.962906 12.615161 0.000000
-18.148723 24.460176 14.293574 0.000000
-1.490524 -22.813196 3.559454 0.000000
15.341779 -19.695390 14.523161 1.000000
12.204424 -10.904741 6.382471 0.000000
-23.416997 -16.766414 14.906583 2.000000
12.752186 -1.983006 13.767352 1.000000
6.544654 0.399127 6.211399 2.000000
-2.931036 10.157851 9.844093 0.000000
-8.010937 -8.321733 8.945909 2.000000
-11.502635 9.716312 9.763529 1.000000
14.138677 0.773629 6.766595 1.000000
24.012937 -20.167233 7.769970 0.000000
2.166076 15.778391 7.691121 1.000000
-5.550468 -11.014137 11.002286 0.000000
-6.736027 -6.077015 7.176081 2.000000
21.609066 6.723238 12.159055 1.000000
13.396433 12.319885 7.853076 0.000000
-11.930544 -10.773137 12.670251 2.000000
16.145701 21.201984 1.085725 1.000000
18.989286 -1.179975 5.194940 2.000000
-12.478763 -3.497509 14.642536 2.000000
15.522325 7.400424 6.344557 1.000000
-6.405778 -6.887465 3.694115 2.000000
11.187753 -21.547779 6.456945 2.000000
2.572498 -2.132475 9.182794 2.000000
-0.956518 -2.508960 9.178245 0.000000
-4.020565 20.310555 12.251566 1.000000
-2.629494 -10.337188 1.733360 0.000000
-9.958863 0.279162 1.780437 1.000000
22.837277 14.366463 10.142448 0.000000
21.216867 3.765679 7.090646 2.000000
18.980029 -22.840511 5.903817 0.000000
-3.916069 8.451087 10.213778 2.000000
-24.619854 -1.600692 2.020491 2.000000
-7.678688 8.188169 4.993422 0.000000
9.462947 -0.044157 11.274715 1.000000
-23.874286 -17.333115 14.381514 2.000000
16.840152 22.836126 6.273930 2.000000
-5.273755 17.402319 4.455833 1.000000
-18.349571 7.673632 5.182862 0.000000
-6.425883 -5.499987 2.184363 0.000000
-1.452861 -7.428010 13.637488 1.000000
23.537547 -19.713872 0.590505 2.000000
17.361438 -24.276928 12.295471 2.000000
24.456319 15.518453 3.274038 1.000000
-2.969022 -24.773048 4.578393 0.000000
-2.009683 -5.388198 9.055835 1.000000
5.869070 1.440009 6.269501 0.000000
-18.053880 -21.517427 10.669099 0.000000
-21.734118 4.957657 1.906719 1.000000
1.063483 9.593800 1.613847 1.000000
-14.532175 -5.750673 0.137801 2.000000
15.656630 -20.323521 2.861069 2.000000
-10.562544 -7.544708 7.501349 2.000000
10.236708 2.608469 7.736531 2.000000
3.580203 -12.313254 14.109042 0.000000
0.945322 -2.175700 13.532198 2.000000
-8.336798 -7.926445 12.914715 0.000000
-19.609737 12.418316 9.932833 1.000000
-12.076979 7.119449 5.300509 1.000000
16.892107 -1.577672 10.121491 2.000000
15.968939 5.032643 9.744685 0.000000
-1.325520 9.703770 12.936434 1.000000
23.031241 -9.876963 1.185017 1.000000
17.395698 21.944315 1.668060 1.000000
7.558961 -23.817680 6.520671 1.000000
-13.123704 22.517190 11.579748 2.000000
-12.448770 9.286200 14.874827 2.000000
-6.915799 -13.441558 0.193237 0.000000
1.145750 10.575758 5.475381 1.000000
-23.998991 14.166610 6.346632 2.000000
14.387256 17.329794 2.230831 2.000000
-15.702615 -11.862095 4.987541 0.000000
24.485621 -0.062175 13.831519 1.000000
-7.503808 -11.941873 1.074075 1.000000
24.717425 18.586417 11.678060 0.000000
-10.537282 -1.341755 9.084092 0.000000
17.831982 -7.335884 5.490328 1.000000
-24.601773 -20.503540 7.347391 2.000000
1.085101 12.636421 1.137550 0.000000
-10.071632 21.634935 0.950120 1.000000
-10.209203 4.121147 13.991227 1.000000
21.127809 20.212634 10.768528 2.000000
3.781431 19.599707 7.159928 0.000000
6.726465 18.025253 5.005794 2.000000
-9.769333 -21.434864 1.827311 1.000000
-4.902505 -2.751874 7.374011 2.000000
16.671772 -2.262636 5.902521 2.000000
-0.981486 4.930179 4.877329 2.000000
10.941289 2.086948 7.705161 1.000000
-6.244568 12.056408 1.441918 2.000000
11.686446 22.847010 1.603358 1.000000
23.161251 -7.557104 7.576514 0.000000
-12.555167 -8.240605 10.986207 1.000000
-0.151693 4.522138 11.353868 0.000000
9.126069 7.275901 0.917261 2.000000
11.594612 -4.743954 10.296498 1.000000
4.560360 -13.317469 11.820438 1.000000
-15.870770 -7.969129 6.012473 0.000000
1.674083 21.510831 4.035501 1.000000
9.252586 23.501747 14.752666 0.000000
24.645902 5.313916 2.598386 2.000000
-2.062495 9.380517 0.411385 0.000000
19.506537 24.611452 12.568986 0.000000
-20.930747 22.399232 3.118179 0.000000
0.171874 -4.878517 13.547980 1.000000
0.062393 -6.685430 10.073878 2.000000
19.945013 -24.724310 13.287028 2.000000
-2.479001 -18.602634 4.623368 0.000000
10.833151 20.240236 9.829321 0.000000
-11.234315 -7.362187 13.694053 0.000000
12.444146 23.037217 6.115383 1.000000
22.266985 -13.335997 11.592877 0.000000
18.069840 -14.244957 0.331563 1.000000
18.833689 14.027887 6.985336 2.000000
-5.143952 21.814847 0.851804 1.000000
-12.587611 -14.367575 3.173996 1.000000
17.270641 12.812136 9.291638 0.000000
3.459691 8.826919 7.069418 0.000000
23.821385 -10.463572 14.793283 0.000000
-11.783849 14.375383 8.652370 2.000000
-16.956645 12.760977 12.436107 0.000000
3.780263 8.914531 12.676073 0.000000
14.755937 16.931643 6.979980 2.000000
-14.129924 -8.326726 9.832970 1.000000
9.840951 -1.606251 5.371091 0.000000
14.243931 -9.125847 0.551493 1.000000
14.371511 -1.883396 5.755686 2.000000
4.046146 -4.611272 7.293424 1.000000
-7.358478 2.912031 1.405479 0.000000
15.781519 24.039847 11.868367 1.000000
